ncols         319
nrows         60
xllcorner     219017.223318
yllcorner     4757352.53053
cellsize      500
NODATA_value  -9999
-9999 -9999 -9999 -9999 -9999 -9999 -9999 -9999 -9999 -9999 -9999 -9999 -9999 -9999 -9999 -9999 -9999 -9999 -9999 -9999 -9999 -9999 -9999 -9999 -9999 -9999 -9999 -9999 -9999 -9999 -9999 -9999 -9999 -9999 -9999 -9999 -9999 -9999 -9999 -9999 -9999 -9999 -9999 -9999 -9999 -9999 -9999 -9999 -9999 -9999 -9999 -9999 -9999 -9999 -9999 -9999 -9999 276 299 284 292 305 312 301 303 291 280 287 283 282 274 265 262 261 263 260 260 261 263 273 297 344 326 268 257 259 255 252 253 258 254 256 259 262 270 281 321 425 463 560 494 557 559 521 442 427 376 422 442 515 559 651 619 647 632 516 441 472 508 516 458 493 416 423 398 323 357 401 486 698 924 720 679 554 408 362 384 379 351 246 247 200 205 218 231 232 257 337 329 318 283 270 329 459 539 509 477 536 522 481 590 568 476 438 497 606 612 541 525 526 444 283 312 402 485 601 566 519 521 486 426 414 383 381 460 460 492 594 460 462 565 597 613 637 600 613 521 476 462 462 475 490 510 580 744 904 1101 1261 1280 1331 1289 1129 971 721 559 554 712 619 788 958 880 779 985 831 638 -9999 -9999 -9999 -9999 -9999 -9999 -9999 -9999 -9999 -9999 -9999 -9999 -9999 -9999 -9999 -9999 -9999 -9999 -9999 -9999 -9999 -9999 -9999 -9999 -9999 -9999 -9999 -9999 -9999 -9999 -9999 -9999 -9999 -9999 -9999 -9999 -9999 -9999 -9999 -9999 -9999 -9999 -9999 -9999 -9999 -9999 -9999 -9999 -9999 -9999 -9999 -9999 -9999 -9999 -9999 -9999 -9999 -9999 -9999 -9999 -9999 -9999 -9999 -9999 -9999 -9999 -9999 -9999 -9999 -9999 -9999 -9999 -9999 -9999 -9999 -9999 -9999 -9999 -9999 -9999 -9999 -9999 -9999 -9999 -9999 -9999 -9999 -9999 -9999 -9999 -9999 -9999 -9999 -9999
-9999 -9999 -9999 -9999 -9999 -9999 -9999 -9999 -9999 -9999 -9999 -9999 -9999 -9999 -9999 -9999 -9999 -9999 -9999 -9999 -9999 -9999 -9999 -9999 -9999 -9999 -9999 -9999 -9999 -9999 -9999 -9999 -9999 -9999 -9999 -9999 -9999 -9999 -9999 -9999 -9999 -9999 -9999 -9999 -9999 -9999 -9999 -9999 -9999 -9999 -9999 -9999 -9999 -9999 -9999 -9999 263 270 285 298 267 284 283 314 291 297 289 295 287 289 275 267 264 264 265 262 258 253 259 264 275 314 326 251 251 252 251 241 243 249 249 250 253 259 299 290 319 349 399 475 411 468 531 496 507 523 439 456 521 529 624 603 570 542 533 492 434 473 503 501 455 452 408 349 399 399 309 394 458 613 840 855 774 691 503 408 423 395 286 362 311 199 202 209 219 309 326 387 332 282 261 271 338 442 472 437 428 467 414 520 549 460 414 510 576 577 644 521 420 428 344 291 281 343 496 474 427 486 569 510 435 397 378 382 435 481 561 614 517 474 527 560 584 664 672 564 561 477 464 467 480 497 522 565 649 810 1050 1263 1388 1401 1210 961 805 617 526 551 600 626 778 927 901 966 981 671 639 -9999 -9999 -9999 -9999 -9999 -9999 -9999 -9999 -9999 -9999 -9999 -9999 -9999 -9999 -9999 -9999 -9999 -9999 -9999 -9999 -9999 -9999 -9999 -9999 -9999 -9999 -9999 -9999 -9999 -9999 -9999 -9999 -9999 -9999 -9999 -9999 -9999 -9999 -9999 -9999 -9999 -9999 -9999 -9999 -9999 -9999 -9999 -9999 -9999 -9999 -9999 -9999 -9999 -9999 -9999 -9999 -9999 -9999 -9999 -9999 -9999 -9999 -9999 -9999 -9999 -9999 -9999 -9999 -9999 -9999 -9999 -9999 -9999 -9999 -9999 -9999 -9999 -9999 -9999 -9999 -9999 -9999 -9999 -9999 -9999 -9999 -9999 -9999 -9999 -9999 -9999 -9999 -9999 -9999
-9999 -9999 -9999 -9999 -9999 -9999 -9999 -9999 -9999 -9999 -9999 -9999 -9999 -9999 -9999 -9999 -9999 -9999 -9999 -9999 -9999 -9999 -9999 -9999 -9999 -9999 -9999 -9999 -9999 -9999 -9999 -9999 -9999 -9999 -9999 -9999 -9999 -9999 -9999 -9999 -9999 -9999 -9999 -9999 -9999 -9999 -9999 -9999 -9999 -9999 -9999 -9999 -9999 -9999 -9999 273 288 258 259 264 299 268 301 313 308 307 296 295 287 277 275 271 267 265 266 264 259 251 253 254 263 267 239 229 229 229 248 229 229 229 229 229 243 250 247 254 273 289 362 360 354 352 375 380 441 546 547 499 521 520 557 517 508 421 439 419 417 433 501 453 436 452 376 391 415 384 294 364 399 523 707 917 871 813 662 535 458 389 424 387 342 234 199 205 218 266 301 314 311 260 253 271 320 338 401 344 372 395 521 588 466 385 457 459 531 596 550 540 495 379 284 278 310 331 354 419 477 581 612 517 458 426 400 405 420 508 557 551 433 444 588 655 634 590 674 652 566 500 476 483 479 493 517 572 683 862 1088 1264 1322 1366 1212 1004 792 567 535 538 661 860 900 1072 966 977 835 844 750 -9999 -9999 -9999 -9999 -9999 -9999 -9999 -9999 -9999 -9999 -9999 -9999 -9999 -9999 -9999 -9999 -9999 -9999 -9999 -9999 -9999 -9999 -9999 -9999 -9999 -9999 -9999 -9999 -9999 -9999 -9999 -9999 -9999 -9999 -9999 -9999 -9999 -9999 -9999 -9999 -9999 -9999 -9999 -9999 -9999 -9999 -9999 -9999 -9999 -9999 -9999 -9999 -9999 -9999 -9999 -9999 -9999 -9999 -9999 -9999 -9999 -9999 -9999 -9999 -9999 -9999 -9999 -9999 -9999 -9999 -9999 -9999 -9999 -9999 -9999 -9999 -9999 -9999 -9999 -9999 -9999 -9999 -9999 -9999 -9999 -9999 -9999 -9999 -9999 -9999 -9999 -9999 -9999 -9999
-9999 -9999 -9999 -9999 -9999 -9999 -9999 -9999 -9999 -9999 -9999 -9999 -9999 -9999 -9999 -9999 -9999 -9999 -9999 -9999 -9999 -9999 -9999 -9999 -9999 -9999 -9999 -9999 -9999 -9999 -9999 -9999 -9999 -9999 -9999 -9999 -9999 -9999 -9999 -9999 -9999 -9999 -9999 -9999 -9999 -9999 -9999 -9999 -9999 -9999 -9999 -9999 -9999 -9999 -9999 257 284 257 284 270 283 288 294 325 318 309 299 300 286 282 280 272 272 272 270 264 258 246 239 238 230 229 229 229 229 229 239 229 229 229 229 229 229 230 229 229 258 302 302 273 293 283 294 339 439 472 490 448 454 449 456 455 425 362 430 363 406 430 476 361 477 463 376 400 380 354 286 316 362 475 630 854 756 900 758 533 420 362 349 434 460 353 201 200 217 231 270 309 285 249 283 292 292 300 325 382 450 506 503 496 430 366 433 539 608 580 555 442 411 402 278 319 409 435 415 520 603 576 531 505 491 427 443 465 449 528 517 444 499 553 480 531 558 630 689 688 596 524 483 485 476 488 500 565 766 914 1094 1210 1311 1271 1096 894 638 556 538 529 645 871 1038 972 878 903 618 867 731 -9999 -9999 -9999 -9999 -9999 -9999 -9999 -9999 -9999 -9999 -9999 -9999 -9999 -9999 -9999 -9999 -9999 -9999 -9999 -9999 -9999 -9999 -9999 -9999 -9999 -9999 -9999 -9999 -9999 -9999 -9999 -9999 -9999 -9999 -9999 -9999 -9999 -9999 -9999 -9999 -9999 -9999 -9999 -9999 -9999 -9999 -9999 -9999 -9999 -9999 -9999 -9999 -9999 -9999 -9999 -9999 -9999 -9999 -9999 -9999 -9999 -9999 -9999 -9999 -9999 -9999 -9999 -9999 -9999 -9999 -9999 -9999 -9999 -9999 -9999 -9999 -9999 -9999 -9999 -9999 -9999 -9999 -9999 -9999 -9999 -9999 -9999 -9999 -9999 -9999 -9999 -9999 -9999 -9999
-9999 -9999 -9999 -9999 -9999 -9999 -9999 -9999 -9999 -9999 -9999 -9999 -9999 -9999 -9999 -9999 -9999 -9999 -9999 -9999 -9999 -9999 -9999 -9999 -9999 -9999 -9999 -9999 -9999 -9999 -9999 -9999 -9999 -9999 -9999 -9999 -9999 -9999 -9999 -9999 -9999 -9999 -9999 -9999 -9999 -9999 -9999 -9999 -9999 -9999 -9999 -9999 -9999 -9999 276 266 255 269 299 317 313 292 291 323 313 309 296 293 292 285 283 284 274 272 270 268 258 241 213 229 229 229 229 229 229 229 229 229 229 229 229 229 229 229 229 229 229 229 229 235 251 255 269 329 324 387 375 351 394 382 408 428 417 316 394 343 347 408 411 311 371 339 338 371 382 328 281 308 384 466 566 679 605 706 671 529 424 355 320 283 261 276 199 197 207 213 217 235 242 238 305 289 277 310 296 345 402 455 488 362 341 468 541 574 555 470 522 513 381 341 278 329 461 531 470 496 481 449 411 444 509 497 516 488 547 539 445 522 609 660 667 575 630 606 707 694 588 517 495 489 490 496 520 603 683 789 953 1063 1185 1262 1145 936 719 598 562 500 673 817 960 822 536 698 511 719 718 -9999 -9999 -9999 -9999 -9999 -9999 -9999 -9999 -9999 -9999 -9999 -9999 -9999 -9999 -9999 -9999 -9999 -9999 -9999 -9999 -9999 -9999 -9999 -9999 -9999 -9999 -9999 -9999 -9999 -9999 -9999 -9999 -9999 -9999 -9999 -9999 -9999 -9999 -9999 -9999 -9999 -9999 -9999 -9999 -9999 -9999 -9999 -9999 -9999 -9999 -9999 -9999 -9999 -9999 -9999 -9999 -9999 -9999 -9999 -9999 -9999 -9999 -9999 -9999 -9999 -9999 -9999 -9999 -9999 -9999 -9999 -9999 -9999 -9999 -9999 -9999 -9999 -9999 -9999 -9999 -9999 -9999 -9999 -9999 -9999 -9999 -9999 -9999 -9999 -9999 -9999 -9999 -9999 -9999
-9999 -9999 -9999 -9999 -9999 -9999 -9999 -9999 -9999 -9999 -9999 -9999 -9999 -9999 -9999 -9999 -9999 -9999 -9999 -9999 -9999 -9999 -9999 -9999 -9999 -9999 -9999 -9999 -9999 -9999 -9999 -9999 -9999 -9999 -9999 -9999 -9999 -9999 -9999 -9999 -9999 -9999 -9999 -9999 -9999 -9999 -9999 -9999 -9999 -9999 -9999 -9999 -9999 -9999 247 298 279 264 283 320 291 282 292 316 319 315 307 302 293 290 292 281 274 271 271 267 259 234 229 223 229 229 229 229 229 229 229 229 229 229 229 229 229 229 229 229 229 229 229 229 229 229 229 250 265 324 412 320 313 325 396 336 360 348 325 302 350 454 347 330 304 283 285 328 302 314 276 339 380 449 534 496 505 598 606 515 484 360 394 390 334 278 196 196 200 205 211 222 222 240 258 247 300 287 311 320 363 392 399 319 446 500 546 639 629 492 438 394 338 281 278 312 370 423 408 415 388 375 496 471 574 588 558 583 514 461 478 594 706 704 678 693 684 670 660 686 614 549 507 506 501 495 522 613 727 782 825 950 1092 1183 1000 948 862 658 552 494 601 827 770 711 521 463 461 580 728 -9999 -9999 -9999 -9999 -9999 -9999 -9999 -9999 -9999 -9999 -9999 -9999 -9999 -9999 -9999 -9999 -9999 -9999 -9999 -9999 -9999 -9999 -9999 -9999 -9999 -9999 -9999 -9999 -9999 -9999 -9999 -9999 -9999 -9999 -9999 -9999 -9999 -9999 -9999 -9999 -9999 -9999 -9999 -9999 -9999 -9999 -9999 -9999 -9999 -9999 -9999 -9999 -9999 -9999 -9999 -9999 -9999 -9999 -9999 -9999 -9999 -9999 -9999 -9999 -9999 -9999 -9999 -9999 -9999 -9999 -9999 -9999 -9999 -9999 -9999 -9999 -9999 -9999 -9999 -9999 -9999 -9999 -9999 -9999 -9999 -9999 -9999 -9999 -9999 -9999 -9999 -9999 -9999 -9999
-9999 -9999 -9999 -9999 -9999 -9999 -9999 -9999 -9999 -9999 -9999 -9999 -9999 -9999 -9999 -9999 -9999 -9999 -9999 -9999 -9999 -9999 -9999 -9999 -9999 -9999 -9999 -9999 -9999 -9999 -9999 -9999 -9999 -9999 -9999 -9999 -9999 -9999 -9999 -9999 -9999 -9999 -9999 -9999 -9999 -9999 -9999 -9999 -9999 -9999 -9999 -9999 -9999 -9999 236 262 288 305 311 281 265 269 270 273 301 311 297 291 294 292 285 278 276 274 270 268 259 233 229 229 223 229 229 229 229 229 229 229 229 229 229 229 229 229 229 229 229 229 229 229 229 229 229 229 253 290 412 356 279 291 333 311 319 280 305 371 443 375 413 328 265 264 323 306 282 267 275 303 350 406 501 506 425 452 456 524 597 465 340 308 266 258 204 196 197 203 207 213 219 225 243 298 310 313 309 324 311 316 307 338 377 430 518 594 630 537 407 405 346 418 344 324 274 364 327 331 416 411 577 541 624 689 648 576 488 524 484 529 591 601 589 648 622 595 646 665 572 535 523 519 492 488 505 603 741 672 789 914 1061 984 917 883 820 641 550 489 568 709 655 481 543 685 537 509 700 515 -9999 -9999 -9999 -9999 -9999 -9999 -9999 -9999 -9999 -9999 -9999 -9999 -9999 -9999 -9999 -9999 -9999 -9999 -9999 -9999 -9999 -9999 -9999 -9999 -9999 -9999 -9999 -9999 -9999 -9999 -9999 -9999 -9999 -9999 -9999 -9999 -9999 -9999 -9999 -9999 -9999 -9999 -9999 -9999 -9999 -9999 -9999 -9999 -9999 -9999 -9999 -9999 -9999 -9999 -9999 -9999 -9999 -9999 -9999 -9999 -9999 -9999 -9999 -9999 -9999 -9999 -9999 -9999 -9999 -9999 -9999 -9999 -9999 -9999 -9999 -9999 -9999 -9999 -9999 -9999 -9999 -9999 -9999 -9999 -9999 -9999 -9999 -9999 -9999 -9999 -9999 -9999 -9999
-9999 -9999 -9999 -9999 -9999 -9999 -9999 -9999 -9999 -9999 -9999 -9999 -9999 -9999 -9999 -9999 -9999 -9999 -9999 -9999 -9999 -9999 -9999 -9999 -9999 -9999 -9999 -9999 -9999 -9999 -9999 -9999 -9999 -9999 -9999 -9999 -9999 -9999 -9999 -9999 -9999 -9999 -9999 -9999 -9999 -9999 -9999 -9999 -9999 -9999 -9999 -9999 -9999 237 199 238 267 290 312 267 263 282 280 293 296 316 307 308 291 295 290 286 274 274 272 267 262 233 229 229 223 229 229 229 229 229 229 229 229 229 229 229 229 229 229 229 229 229 229 229 229 229 229 229 246 268 359 442 293 271 279 272 275 302 396 420 422 349 382 343 259 257 302 386 313 264 267 277 303 388 457 471 415 389 454 452 513 520 342 339 361 240 245 196 197 198 202 206 209 229 306 261 307 318 304 296 297 293 311 379 495 549 552 562 584 563 524 447 482 432 420 391 265 293 349 385 398 473 614 617 579 739 643 570 585 515 468 499 541 548 614 628 591 618 649 601 574 527 507 494 479 478 496 571 625 615 750 893 1055 846 922 813 683 578 514 533 494 487 478 605 717 672 546 459 518 -9999 -9999 -9999 -9999 -9999 -9999 -9999 -9999 -9999 -9999 -9999 -9999 -9999 -9999 -9999 -9999 -9999 -9999 -9999 -9999 -9999 -9999 -9999 -9999 -9999 -9999 -9999 -9999 -9999 -9999 -9999 -9999 -9999 -9999 -9999 -9999 -9999 -9999 -9999 -9999 -9999 -9999 -9999 -9999 -9999 -9999 -9999 -9999 -9999 -9999 -9999 -9999 -9999 -9999 -9999 -9999 -9999 -9999 -9999 -9999 -9999 -9999 -9999 -9999 -9999 -9999 -9999 -9999 -9999 -9999 -9999 -9999 -9999 -9999 -9999 -9999 -9999 -9999 -9999 -9999 -9999 -9999 -9999 -9999 -9999 -9999 -9999 -9999 -9999 -9999 -9999 -9999 -9999 -9999
-9999 -9999 -9999 -9999 -9999 -9999 -9999 -9999 -9999 -9999 -9999 -9999 -9999 -9999 -9999 -9999 -9999 -9999 -9999 -9999 -9999 -9999 -9999 -9999 -9999 -9999 -9999 -9999 -9999 -9999 -9999 -9999 -9999 -9999 -9999 -9999 -9999 -9999 -9999 -9999 -9999 -9999 -9999 -9999 -9999 -9999 -9999 -9999 -9999 -9999 -9999 -9999 -9999 241 237 223 243 278 284 265 285 280 292 335 332 312 296 294 292 282 284 288 277 273 274 274 261 246 229 229 229 223 229 229 229 229 229 229 229 229 229 229 229 229 229 229 229 229 229 229 229 223 229 229 235 294 376 359 275 259 258 264 307 338 436 384 426 353 290 282 254 251 292 385 320 261 266 272 293 384 473 447 470 373 390 487 552 457 430 400 280 294 290 198 194 190 197 203 207 222 252 245 311 336 286 317 285 285 299 376 400 464 482 512 500 558 549 562 559 520 473 295 295 391 445 476 446 506 533 535 660 695 696 692 687 557 491 527 543 528 541 603 543 589 628 625 571 518 509 491 483 469 487 510 534 670 805 864 914 791 761 768 567 564 568 557 490 525 675 844 879 867 736 480 454 -9999 -9999 -9999 -9999 -9999 -9999 -9999 -9999 -9999 -9999 -9999 -9999 -9999 -9999 -9999 -9999 -9999 -9999 -9999 -9999 -9999 -9999 -9999 -9999 -9999 -9999 -9999 -9999 -9999 -9999 -9999 -9999 -9999 -9999 -9999 -9999 -9999 -9999 -9999 -9999 -9999 -9999 -9999 -9999 -9999 -9999 -9999 -9999 -9999 -9999 -9999 -9999 -9999 -9999 -9999 -9999 -9999 -9999 -9999 -9999 -9999 -9999 -9999 -9999 -9999 -9999 -9999 -9999 -9999 -9999 -9999 -9999 -9999 -9999 -9999 -9999 -9999 -9999 -9999 -9999 -9999 -9999 -9999 -9999 -9999 -9999 -9999 -9999 -9999 -9999 -9999 -9999 -9999 -9999
-9999 -9999 -9999 -9999 -9999 -9999 -9999 -9999 -9999 -9999 -9999 -9999 -9999 -9999 -9999 -9999 -9999 -9999 -9999 -9999 -9999 -9999 -9999 -9999 -9999 -9999 -9999 -9999 -9999 -9999 -9999 -9999 -9999 -9999 -9999 -9999 -9999 -9999 -9999 -9999 -9999 -9999 -9999 -9999 -9999 -9999 -9999 -9999 -9999 -9999 -9999 -9999 -9999 243 239 236 223 243 262 267 259 262 286 316 319 317 306 304 304 280 278 280 278 273 278 274 264 252 229 229 229 229 223 229 229 229 229 229 229 229 229 229 229 229 229 229 229 229 229 229 211 229 229 229 233 290 348 371 367 257 255 276 331 412 468 413 318 378 276 254 250 249 258 326 278 275 269 288 288 343 423 410 446 339 383 420 528 541 512 396 308 367 364 251 193 191 195 197 203 213 247 255 283 314 304 292 272 280 285 321 331 384 446 510 444 548 485 428 476 441 418 289 304 393 440 482 470 427 449 540 657 660 664 746 652 569 552 608 617 561 567 576 549 582 589 598 597 506 509 477 464 476 485 533 654 790 779 767 824 761 650 607 542 534 523 495 498 686 768 686 740 860 736 598 513 -9999 -9999 -9999 -9999 -9999 -9999 -9999 -9999 -9999 -9999 -9999 -9999 -9999 -9999 -9999 -9999 -9999 -9999 -9999 -9999 -9999 -9999 -9999 -9999 -9999 -9999 -9999 -9999 -9999 -9999 -9999 -9999 -9999 -9999 -9999 -9999 -9999 -9999 -9999 -9999 -9999 -9999 -9999 -9999 -9999 -9999 -9999 -9999 -9999 -9999 -9999 -9999 -9999 -9999 -9999 -9999 -9999 -9999 -9999 -9999 -9999 -9999 -9999 -9999 -9999 -9999 -9999 -9999 -9999 -9999 -9999 -9999 -9999 -9999 -9999 -9999 -9999 -9999 -9999 -9999 -9999 -9999 -9999 -9999 -9999 -9999 -9999 -9999 -9999 -9999 -9999 -9999 -9999 -9999
-9999 -9999 -9999 -9999 -9999 -9999 -9999 -9999 -9999 -9999 -9999 -9999 -9999 -9999 -9999 -9999 -9999 -9999 -9999 -9999 -9999 -9999 -9999 -9999 -9999 -9999 -9999 -9999 -9999 -9999 -9999 -9999 -9999 -9999 -9999 -9999 -9999 -9999 -9999 -9999 -9999 -9999 -9999 -9999 -9999 -9999 -9999 -9999 -9999 -9999 -9999 -9999 -9999 247 243 240 229 242 307 256 278 271 284 292 335 318 305 308 289 297 281 278 274 273 275 277 270 253 229 229 229 229 229 213 229 229 229 229 229 229 229 229 229 229 229 229 229 229 229 218 229 229 229 229 253 268 330 404 382 250 252 332 399 449 459 392 310 358 326 264 250 258 250 254 256 258 263 266 289 336 355 388 357 373 483 469 542 492 455 370 419 416 359 322 203 191 190 194 202 207 257 258 294 300 273 263 305 338 299 304 398 413 387 390 426 505 544 365 410 418 305 252 333 410 481 389 371 389 435 561 546 638 597 684 594 584 619 742 660 611 611 600 563 537 550 518 498 504 496 479 459 467 481 509 625 722 724 900 982 855 799 643 567 525 504 561 495 519 542 726 850 983 912 688 585 -9999 -9999 -9999 -9999 -9999 -9999 -9999 -9999 -9999 -9999 -9999 -9999 -9999 -9999 -9999 -9999 -9999 -9999 -9999 -9999 -9999 -9999 -9999 -9999 -9999 -9999 -9999 -9999 -9999 -9999 -9999 -9999 -9999 -9999 -9999 -9999 -9999 -9999 -9999 -9999 -9999 -9999 -9999 -9999 -9999 -9999 -9999 -9999 -9999 -9999 -9999 -9999 -9999 -9999 -9999 -9999 -9999 -9999 -9999 -9999 -9999 -9999 -9999 -9999 -9999 -9999 -9999 -9999 -9999 -9999 -9999 -9999 -9999 -9999 -9999 -9999 -9999 -9999 -9999 -9999 -9999 -9999 -9999 -9999 -9999 -9999 -9999 -9999 -9999 -9999 -9999 -9999 -9999 -9999
-9999 -9999 -9999 -9999 -9999 -9999 -9999 -9999 -9999 -9999 -9999 -9999 -9999 -9999 -9999 -9999 -9999 -9999 -9999 -9999 -9999 -9999 -9999 -9999 -9999 -9999 -9999 -9999 -9999 -9999 -9999 -9999 -9999 -9999 -9999 -9999 -9999 -9999 -9999 -9999 -9999 -9999 -9999 -9999 -9999 -9999 -9999 -9999 -9999 -9999 -9999 -9999 -9999 -9999 247 240 236 240 270 249 282 295 275 293 336 326 313 291 307 293 295 298 279 273 276 278 273 257 244 229 229 229 229 229 213 229 229 229 229 229 229 229 229 229 229 229 229 229 223 229 229 229 229 238 275 344 382 343 298 245 249 331 330 350 379 335 332 269 270 269 253 248 249 300 326 309 362 358 280 286 313 322 373 476 448 569 582 490 462 524 431 340 283 240 244 285 227 188 190 199 211 255 274 253 255 291 303 307 279 329 405 377 358 385 459 536 480 330 341 372 257 252 319 404 322 367 426 455 412 426 501 544 570 684 621 639 719 800 717 652 568 542 520 521 501 496 512 474 466 485 453 462 478 501 531 643 873 1018 1073 921 739 727 604 528 558 510 535 588 738 710 764 1029 1020 679 -9999 -9999 -9999 -9999 -9999 -9999 -9999 -9999 -9999 -9999 -9999 -9999 -9999 -9999 -9999 -9999 -9999 -9999 -9999 -9999 -9999 -9999 -9999 -9999 -9999 -9999 -9999 -9999 -9999 -9999 -9999 -9999 -9999 -9999 -9999 -9999 -9999 -9999 -9999 -9999 -9999 -9999 -9999 -9999 -9999 -9999 -9999 -9999 -9999 -9999 -9999 -9999 -9999 -9999 -9999 -9999 -9999 -9999 -9999 -9999 -9999 -9999 -9999 -9999 -9999 -9999 -9999 -9999 -9999 -9999 -9999 -9999 -9999 -9999 -9999 -9999 -9999 -9999 -9999 -9999 -9999 -9999 -9999 -9999 -9999 -9999 -9999 -9999 -9999 -9999 -9999 -9999 -9999 -9999 -9999
-9999 -9999 -9999 -9999 -9999 -9999 -9999 -9999 -9999 -9999 -9999 -9999 -9999 -9999 -9999 -9999 -9999 -9999 -9999 -9999 -9999 -9999 -9999 -9999 -9999 -9999 -9999 -9999 -9999 -9999 -9999 -9999 -9999 -9999 -9999 -9999 -9999 -9999 -9999 -9999 -9999 -9999 -9999 -9999 -9999 -9999 -9999 -9999 -9999 -9999 -9999 -9999 -9999 -9999 247 241 237 236 262 247 296 303 266 264 284 334 313 305 302 292 306 291 278 275 272 276 272 262 253 231 229 229 229 229 229 223 229 229 229 229 229 223 229 229 229 229 223 229 229 229 229 269 307 337 370 317 302 343 253 242 261 288 259 269 292 289 275 263 280 243 241 244 252 347 414 442 445 453 383 311 291 317 397 485 557 569 595 450 421 457 337 355 369 282 297 365 333 242 187 192 210 254 269 241 244 269 313 277 316 384 376 361 351 345 447 533 449 377 271 307 247 257 298 288 360 426 509 568 524 505 565 596 654 694 736 612 693 785 706 662 622 640 547 523 538 542 504 598 531 453 445 460 472 492 530 663 858 1003 1024 934 905 786 636 559 536 616 596 603 835 1011 1018 1107 1086 698 -9999 -9999 -9999 -9999 -9999 -9999 -9999 -9999 -9999 -9999 -9999 -9999 -9999 -9999 -9999 -9999 -9999 -9999 -9999 -9999 -9999 -9999 -9999 -9999 -9999 -9999 -9999 -9999 -9999 -9999 -9999 -9999 -9999 -9999 -9999 -9999 -9999 -9999 -9999 -9999 -9999 -9999 -9999 -9999 -9999 -9999 -9999 -9999 -9999 -9999 -9999 -9999 -9999 -9999 -9999 -9999 -9999 -9999 -9999 -9999 -9999 -9999 -9999 -9999 -9999 -9999 -9999 -9999 -9999 -9999 -9999 -9999 -9999 -9999 -9999 -9999 -9999 -9999 -9999 -9999 -9999 -9999 -9999 -9999 -9999 -9999 -9999 -9999 -9999 -9999 -9999 -9999 -9999 -9999 -9999
-9999 -9999 -9999 -9999 -9999 -9999 -9999 -9999 -9999 -9999 -9999 -9999 -9999 -9999 -9999 -9999 -9999 -9999 -9999 -9999 -9999 -9999 -9999 -9999 -9999 -9999 -9999 -9999 -9999 -9999 -9999 -9999 -9999 -9999 -9999 -9999 -9999 -9999 -9999 -9999 -9999 -9999 -9999 -9999 -9999 -9999 -9999 -9999 -9999 -9999 -9999 -9999 -9999 -9999 247 244 239 222 237 247 262 311 259 309 306 325 315 323 307 301 287 294 294 279 271 278 274 267 256 247 230 229 229 229 229 229 229 229 229 229 229 223 229 229 229 229 229 229 229 229 230 273 336 421 341 281 269 319 244 236 241 248 245 245 261 253 274 241 246 239 240 266 266 302 454 463 455 453 449 417 334 312 377 458 528 562 554 435 392 456 395 381 420 382 347 347 296 232 186 186 190 235 247 230 248 251 273 269 349 419 356 311 293 336 453 397 364 310 242 252 260 316 274 311 378 472 475 563 567 588 666 655 616 600 719 651 688 778 820 742 648 585 601 579 582 532 600 622 537 472 441 462 467 477 576 702 849 854 907 991 936 870 664 632 536 687 686 629 845 844 916 1026 1083 912 -9999 -9999 -9999 -9999 -9999 -9999 -9999 -9999 -9999 -9999 -9999 -9999 -9999 -9999 -9999 -9999 -9999 -9999 -9999 -9999 -9999 -9999 -9999 -9999 -9999 -9999 -9999 -9999 -9999 -9999 -9999 -9999 -9999 -9999 -9999 -9999 -9999 -9999 -9999 -9999 -9999 -9999 -9999 -9999 -9999 -9999 -9999 -9999 -9999 -9999 -9999 -9999 -9999 -9999 -9999 -9999 -9999 -9999 -9999 -9999 -9999 -9999 -9999 -9999 -9999 -9999 -9999 -9999 -9999 -9999 -9999 -9999 -9999 -9999 -9999 -9999 -9999 -9999 -9999 -9999 -9999 -9999 -9999 -9999 -9999 -9999 -9999 -9999 -9999 -9999 -9999 -9999 -9999 -9999 -9999
-9999 -9999 -9999 -9999 -9999 -9999 -9999 -9999 -9999 -9999 -9999 -9999 -9999 -9999 -9999 -9999 -9999 -9999 -9999 -9999 -9999 -9999 -9999 -9999 -9999 -9999 -9999 -9999 -9999 -9999 -9999 -9999 -9999 -9999 -9999 -9999 -9999 -9999 -9999 -9999 -9999 -9999 -9999 -9999 -9999 -9999 -9999 -9999 -9999 -9999 -9999 -9999 -9999 -9999 -9999 244 240 236 224 240 287 286 256 263 265 335 340 313 297 306 300 303 302 289 272 275 275 265 260 252 249 229 229 229 229 229 213 229 229 229 229 229 229 229 229 223 229 229 229 229 229 261 340 385 398 274 250 270 237 233 235 235 234 234 250 233 233 236 237 238 246 257 315 362 371 510 531 504 528 492 463 324 377 450 437 506 504 384 403 410 344 385 394 324 311 289 250 196 187 192 201 225 226 223 265 255 244 257 304 370 385 289 257 322 340 266 266 328 261 377 403 412 358 288 334 413 405 514 545 583 539 505 504 554 652 741 697 795 775 688 649 685 723 671 594 552 560 585 589 490 444 451 465 499 533 624 677 761 770 850 825 673 604 558 643 681 676 653 694 680 761 947 1084 1032 -9999 -9999 -9999 -9999 -9999 -9999 -9999 -9999 -9999 -9999 -9999 -9999 -9999 -9999 -9999 -9999 -9999 -9999 -9999 -9999 -9999 -9999 -9999 -9999 -9999 -9999 -9999 -9999 -9999 -9999 -9999 -9999 -9999 -9999 -9999 -9999 -9999 -9999 -9999 -9999 -9999 -9999 -9999 -9999 -9999 -9999 -9999 -9999 -9999 -9999 -9999 -9999 -9999 -9999 -9999 -9999 -9999 -9999 -9999 -9999 -9999 -9999 -9999 -9999 -9999 -9999 -9999 -9999 -9999 -9999 -9999 -9999 -9999 -9999 -9999 -9999 -9999 -9999 -9999 -9999 -9999 -9999 -9999 -9999 -9999 -9999 -9999 -9999 -9999 -9999 -9999 -9999 -9999 -9999 -9999
-9999 -9999 -9999 -9999 -9999 -9999 -9999 -9999 -9999 -9999 -9999 -9999 -9999 -9999 -9999 -9999 -9999 -9999 -9999 -9999 -9999 -9999 -9999 -9999 -9999 -9999 -9999 -9999 -9999 -9999 -9999 -9999 -9999 -9999 -9999 -9999 -9999 -9999 -9999 -9999 -9999 -9999 -9999 -9999 -9999 -9999 -9999 -9999 -9999 -9999 -9999 -9999 -9999 -9999 -9999 246 243 240 229 234 260 266 257 310 313 339 322 308 324 327 322 318 300 296 281 270 272 262 262 255 256 251 231 229 229 229 229 223 229 229 229 229 229 229 223 229 229 229 229 229 229 254 285 375 342 262 243 240 233 231 229 232 228 229 229 228 232 233 234 297 299 278 462 440 446 552 572 545 515 504 489 343 399 389 360 419 435 375 375 341 293 303 386 351 282 243 223 190 185 200 200 212 216 243 243 234 242 258 272 287 254 231 226 243 231 231 243 261 327 424 506 465 439 336 331 333 373 422 459 457 435 565 621 573 653 714 782 732 785 631 761 765 830 684 581 590 523 558 623 528 433 447 471 498 565 669 793 846 837 851 757 767 653 550 683 600 702 684 796 877 869 879 1126 1196 1292 -9999 -9999 -9999 -9999 -9999 -9999 -9999 -9999 -9999 -9999 -9999 -9999 -9999 -9999 -9999 -9999 -9999 -9999 -9999 -9999 -9999 -9999 -9999 -9999 -9999 -9999 -9999 -9999 -9999 -9999 -9999 -9999 -9999 -9999 -9999 -9999 -9999 -9999 -9999 -9999 -9999 -9999 -9999 -9999 -9999 -9999 -9999 -9999 -9999 -9999 -9999 -9999 -9999 -9999 -9999 -9999 -9999 -9999 -9999 -9999 -9999 -9999 -9999 -9999 -9999 -9999 -9999 -9999 -9999 -9999 -9999 -9999 -9999 -9999 -9999 -9999 -9999 -9999 -9999 -9999 -9999 -9999 -9999 -9999 -9999 -9999 -9999 -9999 -9999 -9999 -9999 -9999 -9999 -9999
-9999 -9999 -9999 -9999 -9999 -9999 -9999 -9999 -9999 -9999 -9999 -9999 -9999 -9999 -9999 -9999 -9999 -9999 -9999 -9999 -9999 -9999 -9999 -9999 -9999 -9999 -9999 -9999 -9999 -9999 -9999 -9999 -9999 -9999 -9999 -9999 -9999 -9999 -9999 -9999 -9999 -9999 -9999 -9999 -9999 -9999 -9999 -9999 -9999 -9999 -9999 -9999 -9999 -9999 -9999 -9999 246 242 237 199 238 264 299 298 274 313 335 342 323 310 304 312 311 289 294 279 267 266 263 261 263 262 268 229 229 229 229 223 229 229 229 223 229 223 229 229 229 229 229 229 229 254 293 325 269 250 241 237 232 230 231 230 229 228 228 231 234 232 234 270 371 299 435 546 485 597 626 565 498 455 447 397 434 373 360 327 353 342 369 410 332 257 304 294 233 248 188 165 253 281 211 207 241 229 222 257 257 257 251 233 225 222 231 292 356 331 297 344 405 457 536 503 414 334 455 426 371 391 468 412 460 519 577 619 670 784 764 716 686 677 761 847 747 640 655 638 536 478 573 521 429 449 450 482 596 689 653 683 797 909 736 754 642 557 593 763 630 724 858 922 1026 1078 1143 1232 1095 956 -9999 -9999 -9999 -9999 -9999 -9999 -9999 -9999 -9999 -9999 -9999 -9999 -9999 -9999 -9999 -9999 -9999 -9999 -9999 -9999 -9999 -9999 -9999 -9999 -9999 -9999 -9999 -9999 -9999 -9999 -9999 -9999 -9999 -9999 -9999 -9999 -9999 -9999 -9999 -9999 -9999 -9999 -9999 -9999 -9999 -9999 -9999 -9999 -9999 -9999 -9999 -9999 -9999 -9999 -9999 -9999 -9999 -9999 -9999 -9999 -9999 -9999 -9999 -9999 -9999 -9999 -9999 -9999 -9999 -9999 -9999 -9999 -9999 -9999 -9999 -9999 -9999 -9999 -9999 -9999 -9999 -9999 -9999 -9999 -9999 -9999 -9999 -9999 -9999 -9999 -9999 -9999 -9999
-9999 -9999 -9999 -9999 -9999 -9999 -9999 -9999 -9999 -9999 -9999 -9999 -9999 -9999 -9999 -9999 -9999 -9999 -9999 -9999 -9999 -9999 -9999 -9999 -9999 -9999 -9999 -9999 -9999 -9999 -9999 -9999 -9999 -9999 -9999 -9999 -9999 -9999 -9999 -9999 -9999 -9999 -9999 -9999 -9999 -9999 -9999 -9999 -9999 -9999 -9999 -9999 -9999 -9999 -9999 -9999 247 246 240 236 235 272 262 298 264 277 321 343 342 321 323 307 290 295 286 293 287 274 268 266 259 251 229 229 229 229 229 229 218 229 229 223 229 229 229 229 229 229 229 229 229 264 371 381 327 264 239 236 234 231 234 239 228 227 228 230 244 263 234 244 348 308 416 569 592 564 605 581 529 412 365 356 374 407 432 357 294 289 372 347 303 312 231 244 228 180 188 193 258 260 250 217 222 234 273 284 304 294 239 223 222 219 228 287 368 448 392 423 443 540 584 571 439 393 502 530 408 510 566 507 493 555 542 637 742 744 763 813 711 736 808 832 700 758 761 637 546 474 503 482 426 441 469 483 519 575 705 808 847 981 921 698 589 652 703 824 642 648 804 946 999 1114 1179 1052 876 729 -9999 -9999 -9999 -9999 -9999 -9999 -9999 -9999 -9999 -9999 -9999 -9999 -9999 -9999 -9999 -9999 -9999 -9999 -9999 -9999 -9999 -9999 -9999 -9999 -9999 -9999 -9999 -9999 -9999 -9999 -9999 -9999 -9999 -9999 -9999 -9999 -9999 -9999 -9999 -9999 -9999 -9999 -9999 -9999 -9999 -9999 -9999 -9999 -9999 -9999 -9999 -9999 -9999 -9999 -9999 -9999 -9999 -9999 -9999 -9999 -9999 -9999 -9999 -9999 -9999 -9999 -9999 -9999 -9999 -9999 -9999 -9999 -9999 -9999 -9999 -9999 -9999 -9999 -9999 -9999 -9999 -9999 -9999 -9999 -9999 -9999 -9999 -9999 -9999 -9999 -9999 -9999 -9999
-9999 -9999 -9999 -9999 -9999 -9999 -9999 -9999 -9999 -9999 -9999 -9999 -9999 -9999 -9999 -9999 -9999 -9999 -9999 -9999 -9999 -9999 -9999 -9999 -9999 -9999 -9999 -9999 -9999 -9999 -9999 -9999 -9999 -9999 -9999 -9999 -9999 -9999 -9999 -9999 -9999 -9999 -9999 -9999 -9999 -9999 -9999 -9999 -9999 -9999 -9999 -9999 -9999 -9999 -9999 -9999 248 247 244 239 223 244 270 290 258 269 308 306 335 317 304 316 303 316 283 297 288 280 283 265 256 235 229 229 229 229 229 229 223 229 229 223 223 229 226 262 236 229 224 225 224 289 345 349 374 284 246 238 239 243 274 247 228 227 227 266 287 329 240 234 300 335 396 532 630 593 517 547 543 353 315 342 372 385 432 443 364 306 276 266 239 228 248 234 190 182 185 191 228 235 223 203 260 299 250 241 286 281 220 220 218 218 217 295 355 384 467 537 507 526 635 612 561 452 533 511 502 554 674 597 539 617 678 650 639 612 708 806 723 722 732 768 741 765 680 544 507 456 427 424 443 458 472 508 653 720 839 873 956 946 1011 716 743 657 807 819 822 673 735 812 814 1016 1136 1046 897 872 784 -9999 -9999 -9999 -9999 -9999 -9999 -9999 -9999 -9999 -9999 -9999 -9999 -9999 -9999 -9999 -9999 -9999 -9999 -9999 -9999 -9999 -9999 -9999 -9999 -9999 -9999 -9999 -9999 -9999 -9999 -9999 -9999 -9999 -9999 -9999 -9999 -9999 -9999 -9999 -9999 -9999 -9999 -9999 -9999 -9999 -9999 -9999 -9999 -9999 -9999 -9999 -9999 -9999 -9999 -9999 -9999 -9999 -9999 -9999 -9999 -9999 -9999 -9999 -9999 -9999 -9999 -9999 -9999 -9999 -9999 -9999 -9999 -9999 -9999 -9999 -9999 -9999 -9999 -9999 -9999 -9999 -9999 -9999 -9999 -9999 -9999 -9999 -9999 -9999 -9999 -9999 -9999
-9999 -9999 -9999 -9999 -9999 -9999 -9999 -9999 -9999 -9999 -9999 -9999 -9999 -9999 -9999 -9999 -9999 -9999 -9999 -9999 -9999 -9999 -9999 -9999 -9999 -9999 -9999 -9999 -9999 -9999 -9999 -9999 -9999 -9999 -9999 -9999 -9999 -9999 -9999 -9999 -9999 -9999 -9999 -9999 -9999 -9999 -9999 -9999 -9999 -9999 -9999 -9999 -9999 -9999 -9999 -9999 248 248 245 240 222 240 271 260 255 259 263 287 337 317 320 320 299 294 294 287 297 291 280 271 256 247 229 229 229 229 229 229 229 229 229 211 229 229 222 226 250 229 224 224 225 250 274 287 341 298 247 247 263 280 387 255 233 229 236 286 361 285 252 232 311 376 368 471 567 556 432 444 548 395 292 292 324 355 394 449 455 372 331 323 371 332 395 326 196 181 185 192 207 220 225 206 260 269 256 229 263 233 214 217 218 212 212 266 290 395 491 457 518 563 661 596 573 492 553 545 562 642 735 738 695 702 748 599 540 601 611 700 821 685 665 782 808 813 746 567 496 435 461 528 499 449 483 558 617 752 876 899 851 964 918 679 896 721 870 999 972 817 699 833 923 954 1148 1272 1183 1122 912 -9999 -9999 -9999 -9999 -9999 -9999 -9999 -9999 -9999 -9999 -9999 -9999 -9999 -9999 -9999 -9999 -9999 -9999 -9999 -9999 -9999 -9999 -9999 -9999 -9999 -9999 -9999 -9999 -9999 -9999 -9999 -9999 -9999 -9999 -9999 -9999 -9999 -9999 -9999 -9999 -9999 -9999 -9999 -9999 -9999 -9999 -9999 -9999 -9999 -9999 -9999 -9999 -9999 -9999 -9999 -9999 -9999 -9999 -9999 -9999 -9999 -9999 -9999 -9999 -9999 -9999 -9999 -9999 -9999 -9999 -9999 -9999 -9999 -9999 -9999 -9999 -9999 -9999 -9999 -9999 -9999 -9999 -9999 -9999 -9999 -9999 -9999 -9999 -9999 -9999 -9999 -9999
-9999 -9999 -9999 -9999 -9999 -9999 -9999 -9999 -9999 -9999 -9999 -9999 -9999 -9999 -9999 -9999 -9999 -9999 -9999 -9999 -9999 -9999 -9999 -9999 -9999 -9999 -9999 -9999 -9999 -9999 -9999 -9999 -9999 -9999 -9999 -9999 -9999 -9999 -9999 -9999 -9999 -9999 -9999 -9999 -9999 -9999 -9999 -9999 -9999 -9999 -9999 -9999 -9999 -9999 -9999 -9999 -9999 248 246 239 199 238 252 257 286 262 274 308 330 336 319 295 310 303 289 289 302 292 282 272 262 250 239 229 229 229 229 229 229 213 229 229 229 227 229 227 229 229 224 227 223 223 240 253 313 308 252 270 307 358 448 320 250 227 248 320 300 264 239 229 269 347 326 385 492 467 442 364 437 466 315 281 292 306 376 404 426 416 429 384 375 323 303 283 213 173 182 186 198 193 197 204 264 260 271 241 224 212 213 215 212 206 208 236 295 393 427 429 520 601 601 480 497 502 575 602 619 682 763 659 592 620 629 581 519 553 613 738 722 625 670 750 772 721 680 554 478 442 459 529 508 509 492 584 713 827 852 744 751 911 967 804 942 824 914 1082 1153 894 730 802 802 899 1165 1214 1251 1135 942 -9999 -9999 -9999 -9999 -9999 -9999 -9999 -9999 -9999 -9999 -9999 -9999 -9999 -9999 -9999 -9999 -9999 -9999 -9999 -9999 -9999 -9999 -9999 -9999 -9999 -9999 -9999 -9999 -9999 -9999 -9999 -9999 -9999 -9999 -9999 -9999 -9999 -9999 -9999 -9999 -9999 -9999 -9999 -9999 -9999 -9999 -9999 -9999 -9999 -9999 -9999 -9999 -9999 -9999 -9999 -9999 -9999 -9999 -9999 -9999 -9999 -9999 -9999 -9999 -9999 -9999 -9999 -9999 -9999 -9999 -9999 -9999 -9999 -9999 -9999 -9999 -9999 -9999 -9999 -9999 -9999 -9999 -9999 -9999 -9999 -9999 -9999 -9999 -9999 -9999 -9999 -9999
-9999 -9999 -9999 -9999 -9999 -9999 -9999 -9999 -9999 -9999 -9999 -9999 -9999 -9999 -9999 -9999 -9999 -9999 -9999 -9999 -9999 -9999 -9999 -9999 -9999 -9999 -9999 -9999 -9999 -9999 -9999 -9999 -9999 -9999 376 381 410 477 532 475 433 428 430 371 -9999 -9999 -9999 -9999 -9999 -9999 -9999 -9999 -9999 -9999 -9999 -9999 -9999 248 246 241 202 238 276 295 319 293 315 344 332 335 315 317 323 320 291 276 289 276 277 277 268 255 254 246 229 229 229 229 229 223 211 229 227 229 229 229 229 229 226 222 226 229 222 225 255 301 270 308 380 455 382 351 314 229 252 263 237 235 223 224 252 287 279 315 411 377 328 323 372 421 353 271 271 282 356 359 416 444 352 390 350 319 274 269 236 195 180 179 182 183 187 198 227 231 222 235 216 214 211 208 208 203 205 276 337 343 327 415 497 574 481 435 402 484 590 663 669 767 642 659 597 521 612 551 464 490 621 658 570 621 704 728 675 633 716 587 523 452 435 542 546 526 532 569 611 726 691 608 699 894 887 878 978 790 953 1120 1162 1118 908 739 964 1069 1191 1169 937 800 757 600 -9999 -9999 -9999 -9999 -9999 -9999 -9999 -9999 -9999 -9999 -9999 -9999 -9999 -9999 -9999 -9999 -9999 -9999 -9999 -9999 -9999 -9999 -9999 -9999 -9999 -9999 -9999 -9999 -9999 -9999 -9999 -9999 -9999 -9999 -9999 -9999 -9999 -9999 -9999 -9999 -9999 -9999 -9999 -9999 -9999 -9999 -9999 -9999 -9999 -9999 -9999 -9999 -9999 -9999 -9999 -9999 -9999 -9999 -9999 -9999 -9999 -9999 -9999 -9999 -9999 -9999 -9999 -9999 -9999 -9999 -9999 -9999 -9999 -9999 -9999 -9999 -9999 -9999 -9999 -9999 -9999 -9999 -9999 -9999 -9999 -9999 -9999 -9999 -9999 -9999 -9999
-9999 -9999 -9999 -9999 -9999 -9999 -9999 -9999 -9999 -9999 -9999 -9999 -9999 -9999 -9999 -9999 -9999 -9999 -9999 -9999 -9999 -9999 -9999 -9999 -9999 -9999 -9999 -9999 -9999 -9999 -9999 -9999 532 509 424 444 441 529 529 455 430 438 400 340 321 329 -9999 -9999 -9999 -9999 -9999 -9999 -9999 -9999 -9999 -9999 -9999 249 245 241 221 220 259 261 271 314 300 341 338 347 302 298 287 296 309 291 273 271 268 267 265 262 258 252 245 229 229 229 229 229 229 227 229 229 229 229 229 229 225 227 224 223 229 222 248 260 300 340 381 438 297 281 260 223 222 221 223 219 218 222 237 257 291 270 305 294 287 301 301 320 334 269 265 276 306 322 402 423 326 298 308 306 334 328 306 229 157 175 178 182 179 189 216 197 244 230 211 210 209 208 204 197 204 259 294 319 293 405 451 541 429 376 453 484 512 571 656 692 564 530 589 529 547 507 441 460 496 581 577 704 808 786 671 580 555 487 486 455 406 470 562 533 492 497 644 705 530 632 711 858 780 762 868 671 764 879 1001 1127 994 788 868 1046 1185 946 674 680 724 657 -9999 -9999 -9999 -9999 -9999 -9999 -9999 -9999 -9999 -9999 -9999 -9999 -9999 -9999 -9999 -9999 -9999 -9999 -9999 -9999 -9999 -9999 -9999 -9999 -9999 -9999 -9999 -9999 -9999 -9999 -9999 -9999 -9999 -9999 -9999 -9999 -9999 -9999 -9999 -9999 -9999 -9999 -9999 -9999 -9999 -9999 -9999 -9999 -9999 -9999 -9999 -9999 -9999 -9999 -9999 -9999 -9999 -9999 -9999 -9999 -9999 -9999 -9999 -9999 -9999 -9999 -9999 -9999 -9999 -9999 -9999 -9999 -9999 -9999 -9999 -9999 -9999 -9999 -9999 -9999 -9999 -9999 -9999 -9999 -9999 -9999 -9999 -9999 -9999 -9999 -9999
-9999 -9999 -9999 -9999 -9999 -9999 -9999 -9999 -9999 -9999 -9999 -9999 -9999 -9999 -9999 -9999 -9999 -9999 -9999 -9999 -9999 -9999 -9999 -9999 -9999 -9999 -9999 -9999 -9999 -9999 501 531 505 520 485 494 504 505 452 402 368 354 341 336 379 362 324 282 -9999 -9999 -9999 -9999 -9999 -9999 -9999 -9999 -9999 248 247 240 220 220 234 277 304 289 308 346 323 345 346 320 294 304 282 280 304 284 299 283 275 265 262 262 253 247 231 229 229 223 227 229 213 213 223 223 229 229 228 229 218 218 223 218 248 260 286 347 478 404 304 252 237 224 220 221 219 218 218 219 227 253 239 245 256 263 269 375 374 301 279 286 265 304 292 304 378 392 426 335 268 258 309 285 288 286 180 170 171 171 175 181 189 225 222 210 207 207 208 207 202 175 199 246 269 257 330 358 421 408 354 440 520 422 473 549 619 709 588 462 511 438 520 430 468 555 487 508 618 696 805 773 610 575 569 513 445 437 396 500 502 474 511 473 531 581 576 728 726 652 682 635 669 685 816 918 1081 1201 1117 885 1036 1136 993 872 871 980 891 847 -9999 -9999 -9999 -9999 -9999 -9999 -9999 -9999 -9999 -9999 -9999 -9999 -9999 -9999 -9999 -9999 -9999 -9999 -9999 -9999 -9999 -9999 -9999 -9999 -9999 -9999 -9999 -9999 -9999 -9999 -9999 -9999 -9999 -9999 -9999 -9999 -9999 -9999 -9999 -9999 -9999 -9999 -9999 -9999 -9999 -9999 -9999 -9999 -9999 -9999 -9999 -9999 -9999 -9999 -9999 -9999 -9999 -9999 -9999 -9999 -9999 -9999 -9999 -9999 -9999 -9999 -9999 -9999 -9999 -9999 -9999 -9999 -9999 -9999 -9999 -9999 -9999 -9999 -9999 -9999 -9999 -9999 -9999 -9999 -9999 -9999 -9999 -9999 -9999 -9999 -9999
-9999 -9999 -9999 -9999 -9999 -9999 -9999 -9999 -9999 -9999 -9999 -9999 -9999 -9999 -9999 -9999 -9999 -9999 -9999 -9999 -9999 -9999 -9999 -9999 -9999 -9999 -9999 -9999 -9999 513 510 475 446 465 478 490 523 529 473 426 430 393 403 419 425 378 342 326 328 -9999 -9999 -9999 -9999 -9999 -9999 -9999 -9999 248 245 242 222 228 248 264 298 319 299 271 285 332 323 311 329 297 304 309 287 311 294 296 276 268 265 268 261 254 249 233 229 218 218 229 229 229 229 229 229 229 229 229 229 228 223 242 251 274 308 407 459 354 323 247 231 225 222 219 220 218 217 218 221 224 231 249 249 259 265 310 467 362 295 260 288 287 281 322 321 372 411 303 315 264 260 274 309 218 228 178 160 163 173 181 199 224 208 204 205 206 206 204 201 194 188 209 242 267 269 395 351 333 411 480 497 382 442 513 578 625 526 416 476 443 433 473 502 595 547 656 731 786 840 772 664 684 738 530 483 433 399 534 471 422 482 440 493 564 576 701 585 506 653 659 712 658 912 1151 1291 1414 1283 1112 1058 1145 906 1138 1126 1134 1048 1076 -9999 -9999 -9999 -9999 -9999 -9999 -9999 -9999 -9999 -9999 -9999 -9999 -9999 -9999 -9999 -9999 -9999 -9999 -9999 -9999 -9999 -9999 -9999 -9999 -9999 -9999 -9999 -9999 -9999 -9999 -9999 -9999 -9999 -9999 -9999 -9999 -9999 -9999 -9999 -9999 -9999 -9999 -9999 -9999 -9999 -9999 -9999 -9999 -9999 -9999 -9999 -9999 -9999 -9999 -9999 -9999 -9999 -9999 -9999 -9999 -9999 -9999 -9999 -9999 -9999 -9999 -9999 -9999 -9999 -9999 -9999 -9999 -9999 -9999 -9999 -9999 -9999 -9999 -9999 -9999 -9999 -9999 -9999 -9999 -9999 -9999 -9999 -9999 -9999 -9999 -9999
-9999 -9999 -9999 -9999 -9999 -9999 -9999 -9999 -9999 -9999 -9999 -9999 -9999 -9999 -9999 -9999 -9999 -9999 -9999 -9999 -9999 -9999 -9999 -9999 -9999 -9999 -9999 -9999 484 437 410 490 446 483 491 507 518 567 517 493 483 428 476 441 420 384 350 317 311 300 -9999 -9999 -9999 -9999 -9999 -9999 -9999 -9999 246 239 202 240 263 302 282 274 283 266 305 331 346 327 317 320 321 321 304 314 289 296 289 278 273 263 265 264 253 249 241 222 229 229 229 229 229 229 229 233 240 247 302 254 249 250 256 277 337 383 406 325 273 244 231 227 224 223 219 223 216 216 217 231 315 282 264 251 255 270 310 402 345 264 281 270 287 340 307 343 378 298 283 289 236 247 242 253 179 172 171 173 172 184 219 209 199 201 202 203 203 206 199 200 190 204 214 228 264 332 334 340 424 502 472 358 410 478 553 488 449 397 430 423 384 413 458 559 570 665 656 773 868 839 766 644 633 502 429 407 392 467 409 463 587 545 439 455 462 489 484 583 737 840 754 703 879 1104 1320 1403 1434 1371 1142 1027 985 1278 1183 1184 1100 1007 -9999 -9999 -9999 -9999 -9999 -9999 -9999 -9999 -9999 -9999 -9999 -9999 -9999 -9999 -9999 -9999 -9999 -9999 -9999 -9999 -9999 -9999 -9999 -9999 -9999 -9999 -9999 -9999 -9999 -9999 -9999 -9999 -9999 -9999 -9999 -9999 -9999 -9999 -9999 -9999 -9999 -9999 -9999 -9999 -9999 -9999 -9999 -9999 -9999 -9999 -9999 -9999 -9999 -9999 -9999 -9999 -9999 -9999 -9999 -9999 -9999 -9999 -9999 -9999 -9999 -9999 -9999 -9999 -9999 -9999 -9999 -9999 -9999 -9999 -9999 -9999 -9999 -9999 -9999 -9999 -9999 -9999 -9999 -9999 -9999 -9999 -9999 -9999 -9999 -9999 -9999
-9999 -9999 -9999 -9999 -9999 -9999 -9999 -9999 -9999 -9999 -9999 -9999 -9999 -9999 -9999 -9999 -9999 -9999 -9999 -9999 -9999 -9999 -9999 -9999 -9999 -9999 -9999 -9999 390 399 440 510 492 449 479 515 544 623 567 526 479 459 445 485 418 373 365 351 343 333 294 -9999 -9999 -9999 -9999 -9999 -9999 -9999 244 242 222 241 251 259 308 272 267 269 265 311 338 324 301 301 291 296 314 293 280 281 303 284 269 263 265 267 252 250 211 245 244 229 229 229 229 229 244 253 253 262 282 346 303 286 302 332 298 306 322 347 274 250 235 229 230 270 223 219 218 218 216 231 292 270 244 254 253 250 273 325 304 281 271 258 303 370 301 349 378 292 232 243 219 203 196 186 174 170 160 140 178 198 201 195 196 201 199 201 201 202 200 197 192 196 203 219 232 320 296 341 430 456 361 390 345 437 489 505 404 397 371 384 412 419 471 506 507 551 631 818 769 817 713 622 611 558 513 431 388 425 421 504 665 668 498 525 479 656 666 732 866 973 836 685 923 1182 1425 1485 1512 1354 1086 995 1203 1316 1326 1185 1009 842 -9999 -9999 -9999 -9999 -9999 -9999 -9999 -9999 -9999 -9999 -9999 -9999 -9999 -9999 -9999 -9999 -9999 -9999 -9999 -9999 -9999 -9999 -9999 -9999 -9999 -9999 -9999 -9999 -9999 -9999 -9999 -9999 -9999 -9999 -9999 -9999 -9999 -9999 -9999 -9999 -9999 -9999 -9999 -9999 -9999 -9999 -9999 -9999 -9999 -9999 -9999 -9999 -9999 -9999 -9999 -9999 -9999 -9999 -9999 -9999 -9999 -9999 -9999 -9999 -9999 -9999 -9999 -9999 -9999 -9999 -9999 -9999 -9999 -9999 -9999 -9999 -9999 -9999 -9999 -9999 -9999 -9999 -9999 -9999 -9999 -9999 -9999 -9999 -9999 -9999 -9999
-9999 -9999 -9999 -9999 -9999 -9999 -9999 -9999 -9999 -9999 -9999 -9999 -9999 -9999 -9999 -9999 -9999 -9999 -9999 -9999 -9999 -9999 -9999 -9999 -9999 -9999 -9999 398 473 468 433 486 547 496 485 488 546 530 541 500 497 504 477 446 432 408 372 338 315 301 295 286 283 303 308 284 -9999 -9999 247 244 236 236 268 265 289 253 277 267 292 355 351 344 312 304 312 302 282 287 283 274 297 301 275 263 265 265 249 229 247 251 251 249 249 246 247 254 269 265 272 277 329 367 419 422 387 301 269 273 280 326 324 329 250 268 307 260 223 236 264 219 216 218 292 274 236 244 242 244 253 275 291 274 244 248 295 346 293 327 360 338 250 204 188 189 186 180 163 220 179 178 200 195 196 192 193 198 198 199 199 201 197 195 193 170 197 211 219 248 254 320 410 395 313 337 319 458 563 512 435 357 446 475 491 481 458 458 558 648 694 717 760 833 776 722 743 655 489 412 381 488 488 568 773 734 527 568 493 620 741 884 891 849 847 725 875 1095 1375 1480 1355 1212 1041 1053 1220 1323 1279 1193 1055 969 -9999 -9999 -9999 -9999 -9999 -9999 -9999 -9999 -9999 -9999 -9999 -9999 -9999 -9999 -9999 -9999 -9999 -9999 -9999 -9999 -9999 -9999 -9999 -9999 -9999 -9999 -9999 -9999 -9999 -9999 -9999 -9999 -9999 -9999 -9999 -9999 -9999 -9999 -9999 -9999 -9999 -9999 -9999 -9999 -9999 -9999 -9999 -9999 -9999 -9999 -9999 -9999 -9999 -9999 -9999 -9999 -9999 -9999 -9999 -9999 -9999 -9999 -9999 -9999 -9999 -9999 -9999 -9999 -9999 -9999 -9999 -9999 -9999 -9999 -9999 -9999 -9999 -9999 -9999 -9999 -9999 -9999 -9999 -9999 -9999 -9999 -9999 -9999 -9999 -9999 -9999
-9999 -9999 -9999 -9999 -9999 -9999 -9999 -9999 -9999 -9999 -9999 -9999 -9999 -9999 -9999 -9999 -9999 -9999 -9999 -9999 -9999 -9999 -9999 -9999 -9999 -9999 -9999 437 469 459 534 524 518 504 486 487 487 515 566 550 650 577 499 455 443 389 382 347 343 325 302 296 277 309 302 282 270 252 247 244 238 202 248 293 276 247 241 249 264 303 326 314 323 349 311 288 307 311 298 273 277 291 270 260 262 260 219 249 255 255 257 257 257 262 267 286 338 289 291 357 430 472 450 422 404 272 255 258 260 290 327 371 287 302 332 245 236 294 303 281 238 214 238 266 227 239 244 240 252 259 266 283 242 246 268 292 270 332 321 291 222 191 184 182 177 175 177 235 248 214 223 202 196 191 193 197 197 198 199 200 196 194 193 182 197 208 219 231 247 331 336 306 291 302 323 425 491 556 404 407 554 543 556 557 494 495 501 562 674 704 599 671 654 634 700 623 463 419 390 457 487 673 828 821 602 605 537 554 741 691 740 826 849 744 948 1082 1325 1453 1365 1205 1200 1137 1235 1213 1152 1010 1006 876 812 -9999 -9999 -9999 -9999 -9999 -9999 -9999 -9999 -9999 -9999 -9999 -9999 -9999 -9999 -9999 -9999 -9999 -9999 -9999 -9999 -9999 -9999 -9999 -9999 -9999 -9999 -9999 -9999 -9999 -9999 -9999 -9999 -9999 -9999 -9999 -9999 -9999 -9999 -9999 -9999 -9999 -9999 -9999 -9999 -9999 -9999 -9999 -9999 -9999 -9999 -9999 -9999 -9999 -9999 -9999 -9999 -9999 -9999 -9999 -9999 -9999 -9999 -9999 -9999 -9999 -9999 -9999 -9999 -9999 -9999 -9999 -9999 -9999 -9999 -9999 -9999 -9999 -9999 -9999 -9999 -9999 -9999 -9999 -9999 -9999 -9999 -9999 -9999 -9999 -9999
-9999 -9999 -9999 -9999 -9999 -9999 -9999 -9999 -9999 -9999 -9999 -9999 -9999 -9999 -9999 -9999 -9999 -9999 -9999 -9999 -9999 -9999 -9999 -9999 -9999 -9999 -9999 515 497 473 521 577 554 561 516 579 536 543 581 592 669 640 537 494 457 448 385 344 362 318 297 285 278 269 271 261 259 271 252 247 241 231 235 257 271 243 233 232 234 260 287 294 344 313 296 316 293 287 279 288 269 281 263 257 256 251 247 258 260 263 264 269 276 325 320 336 422 361 332 411 538 516 386 364 329 275 244 243 249 263 292 330 368 342 279 247 287 259 248 241 212 213 222 222 228 239 249 246 247 256 260 273 263 238 245 260 288 328 319 245 198 179 180 174 172 140 185 254 274 242 209 201 192 192 192 199 195 197 197 197 194 192 191 182 197 206 217 222 230 263 273 288 294 265 305 508 464 321 360 627 741 751 716 662 581 538 498 587 676 646 558 522 556 583 690 637 541 428 379 475 519 620 719 832 750 629 621 532 538 569 746 823 868 750 907 1169 1333 1343 1329 1092 1158 1236 1238 1127 945 865 817 769 798 -9999 -9999 -9999 -9999 -9999 -9999 -9999 -9999 -9999 -9999 -9999 -9999 -9999 -9999 -9999 -9999 -9999 -9999 -9999 -9999 -9999 -9999 -9999 -9999 -9999 -9999 -9999 -9999 -9999 -9999 -9999 -9999 -9999 -9999 -9999 -9999 -9999 -9999 -9999 -9999 -9999 -9999 -9999 -9999 -9999 -9999 -9999 -9999 -9999 -9999 -9999 -9999 -9999 -9999 -9999 -9999 -9999 -9999 -9999 -9999 -9999 -9999 -9999 -9999 -9999 -9999 -9999 -9999 -9999 -9999 -9999 -9999 -9999 -9999 -9999 -9999 -9999 -9999 -9999 -9999 -9999 -9999 -9999 -9999 -9999 -9999 -9999 -9999 -9999 -9999
-9999 -9999 -9999 -9999 -9999 -9999 -9999 -9999 -9999 -9999 -9999 -9999 -9999 -9999 -9999 -9999 -9999 -9999 -9999 -9999 -9999 -9999 -9999 -9999 -9999 -9999 449 503 530 508 447 517 606 628 591 560 598 600 610 643 668 646 613 510 449 413 392 400 369 324 295 308 280 277 268 264 258 256 251 253 245 238 206 243 273 236 214 216 215 234 254 265 332 348 338 300 325 305 311 278 268 261 267 253 251 223 253 265 267 273 272 281 294 374 411 319 350 422 345 369 487 434 375 302 287 295 241 239 242 251 271 332 335 290 264 236 259 221 213 210 213 230 226 245 235 239 251 250 248 253 271 278 244 237 287 259 273 274 281 213 177 174 175 169 140 169 194 257 276 251 217 225 201 191 192 194 195 196 197 194 193 187 186 189 198 207 214 219 223 237 245 246 290 393 293 340 334 553 633 798 978 1011 960 868 789 680 671 585 609 695 667 583 549 506 521 516 479 395 419 481 538 759 926 829 842 734 689 638 629 766 645 769 909 788 952 1053 1164 1101 1243 1056 1008 1152 1174 1242 1203 1128 1024 988 775 -9999 -9999 -9999 -9999 -9999 -9999 -9999 -9999 -9999 -9999 -9999 -9999 -9999 -9999 -9999 -9999 -9999 -9999 -9999 -9999 -9999 -9999 -9999 -9999 -9999 -9999 -9999 -9999 -9999 -9999 -9999 -9999 -9999 -9999 -9999 -9999 -9999 -9999 -9999 -9999 -9999 -9999 -9999 -9999 -9999 -9999 -9999 -9999 -9999 -9999 -9999 -9999 -9999 -9999 -9999 -9999 -9999 -9999 -9999 -9999 -9999 -9999 -9999 -9999 -9999 -9999 -9999 -9999 -9999 -9999 -9999 -9999 -9999 -9999 -9999 -9999 -9999 -9999 -9999 -9999 -9999 -9999 -9999 -9999 -9999 -9999 -9999 -9999 -9999 -9999
-9999 -9999 -9999 -9999 -9999 -9999 -9999 -9999 -9999 -9999 -9999 -9999 -9999 -9999 -9999 -9999 -9999 -9999 -9999 -9999 -9999 -9999 -9999 -9999 -9999 -9999 400 450 509 457 419 453 524 617 641 607 610 578 576 575 633 638 578 494 442 399 387 360 336 300 296 318 316 289 310 281 263 252 254 251 247 239 231 243 240 214 202 211 218 220 243 263 291 344 313 326 310 293 280 285 267 259 255 249 217 252 265 274 272 272 280 281 295 319 309 313 316 371 316 340 403 486 354 294 260 265 239 235 238 246 272 296 289 261 237 225 254 228 210 209 214 224 234 240 238 240 250 252 254 265 279 284 243 255 271 289 278 281 225 191 175 173 169 140 164 170 180 214 229 286 248 243 213 191 191 193 194 194 195 192 189 184 177 192 200 209 214 218 225 228 240 245 317 416 423 504 598 685 860 978 1078 1154 1142 1048 932 847 682 653 618 618 641 673 549 538 448 412 387 373 388 442 554 762 951 971 894 769 722 646 630 757 811 836 900 822 869 953 1037 972 1136 1010 946 1158 1098 1121 1100 1099 1204 1095 895 -9999 -9999 -9999 -9999 -9999 -9999 -9999 -9999 -9999 -9999 -9999 -9999 -9999 -9999 -9999 -9999 -9999 -9999 -9999 -9999 -9999 -9999 -9999 -9999 -9999 -9999 -9999 -9999 -9999 -9999 -9999 -9999 -9999 -9999 -9999 -9999 -9999 -9999 -9999 -9999 -9999 -9999 -9999 -9999 -9999 -9999 -9999 -9999 -9999 -9999 -9999 -9999 -9999 -9999 -9999 -9999 -9999 -9999 -9999 -9999 -9999 -9999 -9999 -9999 -9999 -9999 -9999 -9999 -9999 -9999 -9999 -9999 -9999 -9999 -9999 -9999 -9999 -9999 -9999 -9999 -9999 -9999 -9999 -9999 -9999 -9999 -9999 -9999 -9999 -9999
-9999 -9999 -9999 -9999 -9999 -9999 -9999 -9999 -9999 -9999 -9999 -9999 -9999 -9999 -9999 -9999 -9999 -9999 -9999 -9999 -9999 -9999 -9999 -9999 -9999 -9999 372 400 457 412 371 423 481 546 645 600 622 574 538 513 554 578 547 466 403 348 324 313 346 304 302 273 266 279 268 262 255 260 253 251 249 244 239 236 223 236 223 223 216 217 243 260 267 307 338 300 297 292 297 275 277 254 249 243 250 255 279 286 280 281 274 281 288 291 290 295 300 301 309 339 401 506 388 295 271 253 239 234 232 238 247 282 257 236 223 219 227 225 210 212 217 223 229 238 232 238 240 256 270 278 252 253 228 246 266 263 258 293 199 178 171 167 155 162 167 171 181 196 218 272 257 215 199 192 190 191 193 193 192 190 188 185 175 196 203 207 210 216 222 228 233 236 277 333 417 448 566 781 931 1051 1009 1135 1222 1200 1046 938 788 700 618 593 705 697 651 626 640 555 479 371 389 483 622 855 980 1074 987 808 716 671 733 760 803 859 850 812 818 866 946 936 1062 950 882 1102 1007 973 990 1009 1013 856 729 -9999 -9999 -9999 -9999 -9999 -9999 -9999 -9999 -9999 -9999 -9999 -9999 -9999 -9999 -9999 -9999 -9999 -9999 -9999 -9999 -9999 -9999 -9999 -9999 -9999 -9999 -9999 -9999 -9999 -9999 -9999 -9999 -9999 -9999 -9999 -9999 -9999 -9999 -9999 -9999 -9999 -9999 -9999 -9999 -9999 -9999 -9999 -9999 -9999 -9999 -9999 -9999 -9999 -9999 -9999 -9999 -9999 -9999 -9999 -9999 -9999 -9999 -9999 -9999 -9999 -9999 -9999 -9999 -9999 -9999 -9999 -9999 -9999 -9999 -9999 -9999 -9999 -9999 -9999 -9999 -9999 -9999 -9999 -9999 -9999 -9999 -9999 -9999 -9999 -9999
-9999 -9999 -9999 -9999 -9999 -9999 -9999 -9999 -9999 -9999 -9999 -9999 -9999 -9999 -9999 -9999 -9999 -9999 -9999 -9999 -9999 -9999 -9999 -9999 -9999 -9999 -9999 369 414 385 378 436 469 512 586 621 603 632 565 521 521 546 502 430 384 369 350 356 313 325 291 270 267 257 265 268 268 255 254 251 249 243 242 238 262 264 247 240 240 220 245 286 277 348 342 337 326 309 280 278 256 252 237 253 258 259 266 271 277 283 286 285 291 280 284 289 301 304 309 334 385 510 424 297 274 257 242 233 229 235 241 305 252 226 217 214 215 207 208 209 212 217 219 223 227 245 259 254 272 246 269 239 238 256 262 291 303 239 179 172 171 164 161 163 166 172 184 196 222 235 272 251 202 189 190 191 191 192 189 188 183 166 180 197 202 207 212 216 222 227 229 228 235 261 330 412 485 620 808 797 987 1068 1183 1248 1138 973 857 748 610 532 577 665 660 730 614 514 397 385 400 505 642 880 995 1067 994 834 703 740 801 713 839 970 898 824 803 821 876 917 1030 979 838 980 1069 1022 828 774 825 711 752 -9999 -9999 -9999 -9999 -9999 -9999 -9999 -9999 -9999 -9999 -9999 -9999 -9999 -9999 -9999 -9999 -9999 -9999 -9999 -9999 -9999 -9999 -9999 -9999 -9999 -9999 -9999 -9999 -9999 -9999 -9999 -9999 -9999 -9999 -9999 -9999 -9999 -9999 -9999 -9999 -9999 -9999 -9999 -9999 -9999 -9999 -9999 -9999 -9999 -9999 -9999 -9999 -9999 -9999 -9999 -9999 -9999 -9999 -9999 -9999 -9999 -9999 -9999 -9999 -9999 -9999 -9999 -9999 -9999 -9999 -9999 -9999 -9999 -9999 -9999 -9999 -9999 -9999 -9999 -9999 -9999 -9999 -9999 -9999 -9999 -9999 -9999 -9999 -9999 -9999
-9999 -9999 -9999 -9999 -9999 -9999 -9999 -9999 -9999 -9999 -9999 -9999 -9999 -9999 -9999 -9999 -9999 -9999 -9999 -9999 -9999 -9999 -9999 -9999 -9999 -9999 -9999 335 362 337 358 406 436 487 546 496 581 604 613 508 530 550 526 452 427 412 399 362 333 350 289 267 263 274 258 290 284 256 263 266 249 257 246 266 294 270 251 243 232 237 272 307 318 323 335 319 290 284 265 253 249 224 253 258 274 269 269 268 269 271 274 277 278 286 289 316 345 358 449 356 419 473 470 324 278 253 241 234 227 239 289 264 258 255 224 213 211 207 209 209 222 255 249 233 235 252 288 292 286 260 230 224 233 234 264 276 284 199 174 173 169 167 153 160 161 177 185 197 239 285 250 265 194 189 190 189 189 189 185 183 183 169 188 192 201 204 209 212 215 220 224 223 222 231 274 350 422 510 592 781 1048 1105 1236 1222 1157 1085 903 743 589 495 574 567 597 678 600 497 363 477 531 493 608 807 899 997 1015 925 806 735 820 790 834 980 979 871 796 836 842 917 991 987 813 862 928 1073 1062 953 721 749 911 -9999 -9999 -9999 -9999 -9999 -9999 -9999 -9999 -9999 -9999 -9999 -9999 -9999 -9999 -9999 -9999 -9999 -9999 -9999 -9999 -9999 -9999 -9999 -9999 -9999 -9999 -9999 -9999 -9999 -9999 -9999 -9999 -9999 -9999 -9999 -9999 -9999 -9999 -9999 -9999 -9999 -9999 -9999 -9999 -9999 -9999 -9999 -9999 -9999 -9999 -9999 -9999 -9999 -9999 -9999 -9999 -9999 -9999 -9999 -9999 -9999 -9999 -9999 -9999 -9999 -9999 -9999 -9999 -9999 -9999 -9999 -9999 -9999 -9999 -9999 -9999 -9999 -9999 -9999 -9999 -9999 -9999 -9999 -9999 -9999 -9999 -9999 -9999 -9999 -9999
-9999 -9999 -9999 -9999 -9999 -9999 -9999 -9999 -9999 -9999 -9999 -9999 -9999 -9999 -9999 -9999 -9999 -9999 -9999 -9999 -9999 -9999 -9999 -9999 -9999 -9999 -9999 350 314 347 406 457 495 532 501 447 544 573 601 496 493 485 528 517 482 458 422 405 379 319 297 295 264 285 280 294 266 276 287 258 272 255 275 295 301 266 246 240 220 251 304 278 305 301 353 335 277 259 250 249 211 251 268 281 276 275 275 277 273 277 275 275 283 300 313 310 400 424 561 492 441 376 463 361 275 250 234 229 224 235 270 248 288 306 268 214 210 208 210 213 230 235 261 241 242 265 288 259 238 239 244 223 247 269 248 251 258 181 172 171 169 165 158 159 160 175 183 199 238 231 232 251 189 187 188 189 187 184 176 179 181 169 187 196 199 204 205 209 212 217 217 219 216 217 248 300 356 405 538 739 958 1144 1239 1255 1230 1094 892 680 678 539 475 496 560 541 431 387 357 463 556 539 609 811 949 999 997 967 753 693 734 844 936 895 1040 954 794 814 824 908 997 848 795 793 865 934 975 809 751 883 1055 -9999 -9999 -9999 -9999 -9999 -9999 -9999 -9999 -9999 -9999 -9999 -9999 -9999 -9999 -9999 -9999 -9999 -9999 -9999 -9999 -9999 -9999 -9999 -9999 -9999 -9999 -9999 -9999 -9999 -9999 -9999 -9999 -9999 -9999 -9999 -9999 -9999 -9999 -9999 -9999 -9999 -9999 -9999 -9999 -9999 -9999 -9999 -9999 -9999 -9999 -9999 -9999 -9999 -9999 -9999 -9999 -9999 -9999 -9999 -9999 -9999 -9999 -9999 -9999 -9999 -9999 -9999 -9999 -9999 -9999 -9999 -9999 -9999 -9999 -9999 -9999 -9999 -9999 -9999 -9999 -9999 -9999 -9999 -9999 -9999 -9999 -9999 -9999 -9999 -9999
-9999 -9999 -9999 -9999 -9999 -9999 -9999 -9999 -9999 -9999 -9999 -9999 -9999 -9999 -9999 -9999 -9999 -9999 -9999 -9999 -9999 -9999 -9999 -9999 -9999 -9999 -9999 313 315 369 409 427 460 520 468 448 503 536 585 496 454 429 424 433 437 416 368 352 348 341 335 294 273 294 305 285 275 270 259 274 275 265 298 330 312 280 256 240 229 279 268 266 298 326 313 333 322 260 229 251 257 259 283 299 285 280 281 294 281 286 300 292 300 302 366 374 377 474 439 416 341 322 375 415 290 260 241 228 224 232 240 245 268 321 290 255 208 208 222 258 218 237 262 255 253 268 258 240 248 226 223 219 226 237 246 263 217 173 172 168 167 163 160 161 161 175 183 217 250 235 202 211 185 183 186 184 184 179 165 160 166 174 183 191 193 201 203 206 209 212 214 213 214 211 232 271 321 360 473 648 864 1039 1160 1256 1208 1141 1043 867 704 542 491 483 447 483 477 465 354 433 499 565 529 616 748 965 1000 964 907 781 768 803 779 924 933 843 789 801 802 968 983 798 777 789 787 849 798 717 929 1031 1100 -9999 -9999 -9999 -9999 -9999 -9999 -9999 -9999 -9999 -9999 -9999 -9999 -9999 -9999 -9999 -9999 -9999 -9999 -9999 -9999 -9999 -9999 -9999 -9999 -9999 -9999 -9999 -9999 -9999 -9999 -9999 -9999 -9999 -9999 -9999 -9999 -9999 -9999 -9999 -9999 -9999 -9999 -9999 -9999 -9999 -9999 -9999 -9999 -9999 -9999 -9999 -9999 -9999 -9999 -9999 -9999 -9999 -9999 -9999 -9999 -9999 -9999 -9999 -9999 -9999 -9999 -9999 -9999 -9999 -9999 -9999 -9999 -9999 -9999 -9999 -9999 -9999 -9999 -9999 -9999 -9999 -9999 -9999 -9999 -9999 -9999 -9999 -9999 -9999 -9999
-9999 -9999 -9999 -9999 -9999 -9999 -9999 -9999 -9999 -9999 -9999 -9999 -9999 -9999 -9999 -9999 -9999 -9999 -9999 -9999 -9999 -9999 -9999 -9999 -9999 -9999 -9999 293 295 317 339 388 442 494 450 428 482 542 527 530 514 467 473 460 399 389 378 400 375 347 329 326 326 341 325 293 278 293 267 267 280 266 313 314 301 324 265 239 228 242 291 316 297 322 312 284 280 249 259 271 261 273 278 285 298 295 305 322 305 314 343 371 375 345 410 459 410 349 361 389 315 292 322 407 287 254 239 225 222 229 231 242 249 260 281 220 207 207 212 216 217 243 234 258 233 256 272 249 222 219 219 237 232 240 268 231 175 171 169 168 165 159 139 161 162 174 191 233 206 201 191 182 178 179 183 182 177 173 165 173 180 181 182 188 194 197 200 202 204 208 208 209 210 208 226 244 270 347 439 538 788 989 1143 1238 1220 1177 1041 801 724 577 546 500 557 670 591 436 349 485 607 536 457 631 840 899 886 913 881 835 719 780 834 919 909 835 781 781 784 936 957 787 761 756 743 739 715 857 1040 1118 -9999 -9999 -9999 -9999 -9999 -9999 -9999 -9999 -9999 -9999 -9999 -9999 -9999 -9999 -9999 -9999 -9999 -9999 -9999 -9999 -9999 -9999 -9999 -9999 -9999 -9999 -9999 -9999 -9999 -9999 -9999 -9999 -9999 -9999 -9999 -9999 -9999 -9999 -9999 -9999 -9999 -9999 -9999 -9999 -9999 -9999 -9999 -9999 -9999 -9999 -9999 -9999 -9999 -9999 -9999 -9999 -9999 -9999 -9999 -9999 -9999 -9999 -9999 -9999 -9999 -9999 -9999 -9999 -9999 -9999 -9999 -9999 -9999 -9999 -9999 -9999 -9999 -9999 -9999 -9999 -9999 -9999 -9999 -9999 -9999 -9999 -9999 -9999 -9999 -9999 -9999
-9999 -9999 -9999 -9999 -9999 -9999 -9999 -9999 -9999 -9999 -9999 -9999 -9999 -9999 -9999 -9999 -9999 -9999 -9999 -9999 -9999 -9999 -9999 -9999 -9999 -9999 -9999 284 286 290 307 333 367 442 394 421 482 556 655 661 610 552 579 529 498 445 424 434 385 382 351 325 309 312 339 338 302 273 287 267 274 283 295 385 337 297 263 240 236 254 274 304 328 319 298 290 255 243 262 262 276 275 297 306 325 385 354 367 419 402 370 335 324 358 392 380 397 288 306 349 302 267 282 350 302 251 234 224 218 222 223 244 254 244 245 217 206 210 216 214 244 243 244 261 226 243 251 239 225 216 240 235 271 233 203 180 173 169 166 162 161 152 158 158 173 174 190 169 168 170 173 176 173 174 175 177 171 147 171 177 182 182 184 189 192 192 194 197 203 201 203 200 200 203 209 219 275 332 367 449 653 855 1025 1134 1185 1198 1138 1011 801 620 588 644 714 634 549 427 350 477 543 503 416 573 663 851 1004 966 939 883 780 762 794 911 942 835 778 777 833 804 920 812 743 739 736 724 739 849 1069 1236 1221 -9999 -9999 -9999 -9999 -9999 -9999 -9999 -9999 -9999 -9999 -9999 -9999 -9999 -9999 -9999 -9999 -9999 -9999 -9999 -9999 -9999 -9999 -9999 -9999 -9999 -9999 -9999 -9999 -9999 -9999 -9999 -9999 -9999 -9999 -9999 -9999 -9999 -9999 -9999 -9999 -9999 -9999 -9999 -9999 -9999 -9999 -9999 -9999 -9999 -9999 -9999 -9999 -9999 -9999 -9999 -9999 -9999 -9999 -9999 -9999 -9999 -9999 -9999 -9999 -9999 -9999 -9999 -9999 -9999 -9999 -9999 -9999 -9999 -9999 -9999 -9999 -9999 -9999 -9999 -9999 -9999 -9999 -9999 -9999 -9999 -9999 -9999 -9999 -9999 -9999
-9999 -9999 -9999 -9999 -9999 -9999 -9999 -9999 -9999 -9999 -9999 -9999 -9999 -9999 -9999 -9999 -9999 -9999 -9999 -9999 -9999 -9999 -9999 -9999 -9999 -9999 -9999 307 308 295 294 313 353 375 373 414 475 521 592 687 695 643 663 638 573 489 468 450 398 368 353 335 320 301 302 318 326 324 299 301 296 289 329 313 310 297 282 241 238 253 268 290 352 329 295 258 213 269 281 289 327 335 306 340 379 400 459 477 421 345 326 308 299 309 312 377 392 301 290 307 285 283 261 280 273 251 231 222 218 220 234 249 269 217 217 206 206 206 211 228 258 236 250 261 244 219 224 228 212 214 220 232 245 230 180 177 173 169 163 162 157 157 156 169 173 174 163 162 151 160 161 165 168 161 167 161 160 172 175 179 181 179 182 187 189 189 194 197 195 198 197 200 200 200 195 208 223 253 306 407 541 800 906 947 1049 1130 1109 997 787 616 642 734 687 591 486 411 344 441 490 446 407 529 762 923 1074 1039 931 893 858 818 845 860 823 802 775 774 801 765 853 771 738 735 715 737 745 779 882 1067 1266 -9999 -9999 -9999 -9999 -9999 -9999 -9999 -9999 -9999 -9999 -9999 -9999 -9999 -9999 -9999 -9999 -9999 -9999 -9999 -9999 -9999 -9999 -9999 -9999 -9999 -9999 -9999 -9999 -9999 -9999 -9999 -9999 -9999 -9999 -9999 -9999 -9999 -9999 -9999 -9999 -9999 -9999 -9999 -9999 -9999 -9999 -9999 -9999 -9999 -9999 -9999 -9999 -9999 -9999 -9999 -9999 -9999 -9999 -9999 -9999 -9999 -9999 -9999 -9999 -9999 -9999 -9999 -9999 -9999 -9999 -9999 -9999 -9999 -9999 -9999 -9999 -9999 -9999 -9999 -9999 -9999 -9999 -9999 -9999 -9999 -9999 -9999 -9999 -9999 -9999
-9999 -9999 -9999 -9999 -9999 -9999 -9999 -9999 -9999 -9999 -9999 -9999 -9999 -9999 -9999 -9999 -9999 -9999 -9999 -9999 -9999 -9999 -9999 -9999 -9999 -9999 -9999 -9999 330 300 298 307 332 354 359 391 430 486 512 576 679 727 742 704 593 512 527 482 444 419 383 368 339 310 299 292 287 296 316 324 334 343 294 311 351 326 282 239 214 244 264 290 290 266 231 231 245 290 323 350 395 407 359 360 406 484 583 545 415 323 291 328 271 298 356 421 423 322 252 296 293 257 249 248 262 236 233 220 218 229 257 262 287 227 210 206 206 208 214 230 240 230 225 250 249 247 228 209 213 236 229 268 267 203 176 174 171 168 163 158 158 137 156 179 183 170 158 146 160 160 154 155 141 163 160 147 166 169 173 174 174 177 177 181 184 188 189 188 193 193 196 194 196 194 193 196 208 220 264 329 429 612 728 726 859 958 984 986 768 534 708 738 707 609 598 469 397 373 407 364 445 591 787 982 1011 847 970 924 886 886 808 790 781 800 798 774 840 773 757 745 725 736 737 745 753 828 900 1086 1137 -9999 -9999 -9999 -9999 -9999 -9999 -9999 -9999 -9999 -9999 -9999 -9999 -9999 -9999 -9999 -9999 -9999 -9999 -9999 -9999 -9999 -9999 -9999 -9999 -9999 -9999 -9999 -9999 -9999 -9999 -9999 -9999 -9999 -9999 -9999 -9999 -9999 -9999 -9999 -9999 -9999 -9999 -9999 -9999 -9999 -9999 -9999 -9999 -9999 -9999 -9999 -9999 -9999 -9999 -9999 -9999 -9999 -9999 -9999 -9999 -9999 -9999 -9999 -9999 -9999 -9999 -9999 -9999 -9999 -9999 -9999 -9999 -9999 -9999 -9999 -9999 -9999 -9999 -9999 -9999 -9999 -9999 -9999 -9999 -9999 -9999 -9999 -9999 -9999 -9999
-9999 -9999 -9999 -9999 -9999 -9999 -9999 -9999 -9999 -9999 -9999 -9999 -9999 -9999 -9999 -9999 -9999 -9999 -9999 -9999 -9999 -9999 -9999 -9999 -9999 -9999 -9999 -9999 318 313 300 303 328 342 353 367 397 436 490 552 649 745 804 747 620 613 579 517 492 465 418 401 344 339 314 295 286 281 291 321 324 325 281 275 304 289 246 239 238 229 238 236 240 211 242 246 264 307 312 378 412 450 421 407 498 580 553 480 391 311 287 279 250 270 320 404 363 295 269 275 284 244 247 248 241 243 236 216 221 265 301 248 259 220 216 206 206 216 250 245 257 241 215 219 247 225 210 211 214 230 241 262 222 179 173 171 171 166 161 159 160 155 149 156 138 145 163 159 172 175 184 164 165 168 173 170 170 169 156 163 171 171 173 175 181 184 186 189 188 191 191 193 191 191 189 190 195 205 222 272 366 429 497 585 638 774 874 889 650 536 696 776 644 555 468 414 374 339 342 394 473 602 800 948 805 827 985 931 919 855 814 787 780 811 817 757 801 841 820 717 741 742 743 759 774 838 902 1088 1126 -9999 -9999 -9999 -9999 -9999 -9999 -9999 -9999 -9999 -9999 -9999 -9999 -9999 -9999 -9999 -9999 -9999 -9999 -9999 -9999 -9999 -9999 -9999 -9999 -9999 -9999 -9999 -9999 -9999 -9999 -9999 -9999 -9999 -9999 -9999 -9999 -9999 -9999 -9999 -9999 -9999 -9999 -9999 -9999 -9999 -9999 -9999 -9999 -9999 -9999 -9999 -9999 -9999 -9999 -9999 -9999 -9999 -9999 -9999 -9999 -9999 -9999 -9999 -9999 -9999 -9999 -9999 -9999 -9999 -9999 -9999 -9999 -9999 -9999 -9999 -9999 -9999 -9999 -9999 -9999 -9999 -9999 -9999 -9999 -9999 -9999 -9999 -9999 -9999 -9999
-9999 -9999 -9999 -9999 -9999 -9999 -9999 -9999 -9999 -9999 -9999 -9999 -9999 -9999 -9999 -9999 -9999 -9999 -9999 -9999 -9999 -9999 -9999 -9999 -9999 -9999 -9999 -9999 312 341 308 306 322 328 351 378 397 404 453 494 576 689 803 777 704 678 643 591 523 486 436 385 384 333 306 317 312 293 278 287 301 301 293 262 267 261 248 240 239 237 237 240 242 244 253 255 255 293 351 342 381 420 492 484 525 507 467 512 378 322 314 292 252 255 320 337 330 291 259 261 252 233 236 240 228 224 225 215 227 296 298 224 214 211 205 205 207 229 239 236 240 229 212 230 252 219 208 237 250 238 234 270 226 174 172 170 169 163 160 159 158 157 150 137 172 206 219 212 188 198 205 182 176 183 182 186 195 192 185 171 172 160 165 174 174 180 181 184 186 187 187 189 189 191 187 186 187 199 222 252 321 497 582 601 736 882 773 635 557 525 665 711 602 492 427 330 374 392 340 369 438 610 659 639 658 870 976 901 859 849 830 825 880 815 788 746 754 802 725 749 748 752 755 764 822 792 870 1037 -9999 -9999 -9999 -9999 -9999 -9999 -9999 -9999 -9999 -9999 -9999 -9999 -9999 -9999 -9999 -9999 -9999 -9999 -9999 -9999 -9999 -9999 -9999 -9999 -9999 -9999 -9999 -9999 -9999 -9999 -9999 -9999 -9999 -9999 -9999 -9999 -9999 -9999 -9999 -9999 -9999 -9999 -9999 -9999 -9999 -9999 -9999 -9999 -9999 -9999 -9999 -9999 -9999 -9999 -9999 -9999 -9999 -9999 -9999 -9999 -9999 -9999 -9999 -9999 -9999 -9999 -9999 -9999 -9999 -9999 -9999 -9999 -9999 -9999 -9999 -9999 -9999 -9999 -9999 -9999 -9999 -9999 -9999 -9999 -9999 -9999 -9999 -9999 -9999 -9999 -9999
-9999 -9999 -9999 -9999 -9999 -9999 -9999 -9999 -9999 -9999 -9999 -9999 -9999 -9999 -9999 -9999 -9999 -9999 -9999 -9999 -9999 -9999 -9999 -9999 -9999 -9999 -9999 -9999 -9999 366 319 307 317 337 346 358 386 421 460 485 574 727 820 775 808 775 697 646 585 539 513 447 355 367 361 341 325 304 277 276 316 353 310 287 262 257 245 245 245 251 258 252 249 256 267 275 271 264 281 309 337 382 435 559 486 438 441 437 344 309 291 257 247 276 312 274 301 292 246 240 234 229 225 223 217 211 212 215 216 252 245 205 265 252 206 206 205 208 214 236 258 225 226 209 220 208 208 215 223 246 268 253 212 172 170 168 169 160 157 157 157 155 148 155 195 212 311 311 258 248 249 277 271 245 209 201 203 206 194 189 180 175 174 152 173 176 178 181 185 185 186 186 186 186 186 188 190 193 209 226 327 502 616 676 726 817 734 584 462 434 549 650 615 544 453 342 317 449 389 362 467 488 446 522 579 771 801 814 840 851 871 965 875 804 757 746 729 793 811 754 763 804 779 784 848 833 809 850 882 850 797 -9999 -9999 -9999 -9999 -9999 -9999 -9999 -9999 -9999 -9999 -9999 -9999 -9999 -9999 -9999 -9999 -9999 -9999 -9999 -9999 -9999 -9999 -9999 -9999 -9999 -9999 -9999 -9999 -9999 -9999 -9999 -9999 -9999 -9999 -9999 -9999 -9999 -9999 -9999 -9999 -9999 -9999 -9999 -9999 -9999 -9999 -9999 -9999 -9999 -9999 -9999 -9999 -9999 -9999 -9999 -9999 -9999 -9999 -9999 -9999 -9999 -9999 -9999 -9999 -9999 -9999 -9999 -9999 -9999 -9999 -9999 -9999 -9999 -9999 -9999 -9999 -9999 -9999 -9999 -9999 -9999 -9999 -9999 -9999 -9999 -9999 -9999 -9999
-9999 -9999 -9999 -9999 -9999 -9999 -9999 -9999 -9999 -9999 -9999 -9999 -9999 -9999 -9999 -9999 -9999 -9999 -9999 -9999 -9999 -9999 -9999 -9999 -9999 -9999 -9999 -9999 -9999 -9999 368 318 314 330 356 371 377 437 434 502 563 659 728 729 748 804 760 704 662 562 521 499 445 428 405 362 341 303 278 268 304 312 336 301 299 256 242 240 243 271 317 270 277 287 277 332 303 280 316 352 380 451 534 581 505 396 380 395 339 276 256 272 259 242 244 238 235 235 238 230 224 225 225 218 205 205 205 205 205 216 207 211 273 274 209 205 205 215 253 253 269 263 252 234 205 205 237 252 229 227 237 252 193 171 170 167 165 160 156 159 154 135 150 190 199 276 248 372 330 351 290 246 336 296 275 233 216 222 209 201 191 184 180 174 166 171 175 178 180 184 186 186 186 187 187 189 189 191 196 204 267 480 561 624 572 654 634 484 359 421 511 614 493 468 381 306 410 466 494 432 387 407 516 568 587 647 712 805 827 892 849 911 828 780 756 749 764 859 779 825 807 853 871 815 886 884 825 847 967 907 951 1134 -9999 -9999 -9999 -9999 -9999 -9999 -9999 -9999 -9999 -9999 -9999 -9999 -9999 -9999 -9999 -9999 -9999 -9999 -9999 -9999 -9999 -9999 -9999 -9999 -9999 1051 922 1162 1217 1059 -9999 -9999 -9999 -9999 -9999 -9999 -9999 -9999 -9999 -9999 -9999 -9999 -9999 -9999 -9999 -9999 -9999 -9999 -9999 -9999 -9999 -9999 -9999 -9999 -9999 -9999 -9999 -9999 -9999 -9999 -9999 -9999 -9999 -9999 -9999 -9999 -9999 -9999 -9999 -9999 -9999 -9999 -9999 -9999 -9999 -9999 -9999 -9999 -9999 -9999 -9999 -9999 -9999 -9999 -9999 -9999 -9999
-9999 -9999 -9999 -9999 -9999 -9999 -9999 -9999 -9999 -9999 -9999 -9999 -9999 -9999 -9999 -9999 -9999 -9999 -9999 -9999 -9999 -9999 -9999 -9999 -9999 -9999 -9999 -9999 -9999 -9999 -9999 346 314 379 331 351 369 382 434 473 528 588 704 635 718 748 756 676 637 581 530 533 503 494 415 359 338 295 280 263 308 305 322 282 283 248 237 235 243 309 333 305 324 281 280 338 275 274 298 342 410 454 466 531 537 420 311 329 316 269 271 244 240 236 234 233 232 229 228 226 225 230 230 226 220 215 211 212 218 213 213 217 273 280 210 206 245 239 262 262 250 228 260 213 205 209 214 242 256 246 254 233 178 173 169 166 164 159 156 154 146 153 155 196 271 290 363 314 435 394 353 262 331 398 337 269 247 240 230 222 208 195 186 182 176 167 173 175 179 184 187 186 186 186 186 187 189 191 193 198 236 360 496 567 540 453 594 423 376 508 601 584 436 345 296 360 467 499 543 466 534 539 571 506 691 736 855 921 921 887 803 841 829 786 762 757 804 813 767 953 853 895 918 920 880 915 862 958 1009 1019 1119 1168 1236 1101 -9999 -9999 -9999 -9999 -9999 -9999 -9999 -9999 -9999 -9999 -9999 -9999 -9999 -9999 -9999 -9999 -9999 -9999 -9999 -9999 -9999 1001 1012 1179 1053 1141 1315 1130 989 949 764 -9999 -9999 -9999 -9999 -9999 -9999 -9999 -9999 -9999 -9999 -9999 -9999 -9999 -9999 -9999 -9999 -9999 -9999 -9999 -9999 -9999 -9999 -9999 -9999 -9999 -9999 -9999 -9999 -9999 -9999 -9999 -9999 -9999 -9999 -9999 -9999 -9999 -9999 -9999 -9999 -9999 -9999 -9999 -9999 -9999 -9999 -9999 -9999 -9999 -9999 -9999 -9999 -9999 -9999
-9999 -9999 -9999 -9999 -9999 -9999 -9999 -9999 -9999 -9999 -9999 -9999 -9999 -9999 -9999 -9999 -9999 -9999 -9999 -9999 -9999 -9999 -9999 -9999 -9999 -9999 -9999 -9999 -9999 -9999 -9999 -9999 352 318 341 348 365 382 400 475 468 494 543 629 652 739 663 648 637 560 529 516 509 499 419 368 318 278 287 259 283 312 302 275 279 244 236 234 262 355 365 324 321 316 312 326 326 309 300 350 378 412 427 502 474 455 349 287 283 274 259 244 241 237 243 307 251 252 238 229 230 251 240 227 233 225 224 237 226 228 223 243 278 284 231 240 266 261 254 221 255 217 240 204 204 226 246 221 253 284 280 220 178 174 169 165 163 160 155 146 150 152 159 227 282 329 418 333 404 369 318 389 338 396 355 248 335 305 244 242 223 208 197 188 178 176 169 174 176 180 184 185 186 186 188 189 192 194 196 196 206 322 464 482 405 352 442 337 430 525 575 500 406 289 357 461 433 440 562 671 686 778 718 546 681 743 813 859 841 824 800 800 859 846 776 788 807 826 772 859 911 925 1001 1050 964 988 874 1047 1141 1125 1186 1138 1025 1004 919 -9999 -9999 -9999 -9999 -9999 -9999 -9999 -9999 -9999 -9999 -9999 -9999 -9999 -9999 -9999 -9999 751 -9999 842 1043 1105 1065 1203 1227 1099 1348 1197 1233 1175 1017 767 -9999 -9999 -9999 -9999 -9999 -9999 -9999 -9999 -9999 -9999 -9999 -9999 -9999 -9999 -9999 -9999 -9999 -9999 -9999 -9999 -9999 -9999 -9999 -9999 -9999 -9999 -9999 -9999 -9999 -9999 -9999 -9999 -9999 -9999 -9999 -9999 -9999 -9999 -9999 -9999 -9999 -9999 -9999 -9999 -9999 -9999 -9999 -9999 -9999 -9999 -9999 -9999 -9999
-9999 -9999 -9999 -9999 -9999 -9999 -9999 -9999 -9999 -9999 -9999 -9999 -9999 -9999 -9999 -9999 -9999 -9999 -9999 -9999 -9999 -9999 -9999 -9999 -9999 -9999 -9999 -9999 -9999 -9999 -9999 -9999 -9999 -9999 330 339 350 366 414 416 463 492 515 566 630 740 697 622 604 636 549 531 520 456 387 321 301 317 310 258 256 304 320 296 259 242 234 237 267 349 406 374 327 360 367 364 375 347 296 360 376 368 448 502 378 377 307 316 284 254 250 270 319 365 353 360 337 367 306 275 245 258 231 238 263 232 233 283 326 305 273 255 315 202 243 291 227 223 249 237 225 214 208 203 213 214 232 267 260 278 216 211 176 171 166 162 162 161 154 144 150 153 159 253 334 403 497 390 520 386 395 413 426 380 388 270 381 415 339 287 251 245 214 195 186 182 176 175 175 179 182 185 187 187 187 190 194 195 197 200 203 288 377 297 268 288 312 349 395 473 546 473 369 280 303 341 439 566 603 718 774 795 746 654 538 588 643 749 837 853 804 800 805 824 792 799 864 871 774 787 842 920 1034 1088 1034 1071 1024 1081 1173 1129 1076 1097 1197 1240 1062 -9999 988 747 -9999 -9999 -9999 -9999 -9999 -9999 -9999 -9999 674 696 815 839 816 847 673 805 973 1118 1181 1209 1353 1223 1396 1394 1446 1425 1107 863 807 -9999 -9999 -9999 -9999 -9999 -9999 -9999 -9999 -9999 -9999 -9999 -9999 -9999 -9999 -9999 -9999 -9999 -9999 -9999 -9999 -9999 -9999 -9999 -9999 -9999 -9999 -9999 -9999 -9999 -9999 -9999 -9999 -9999 -9999 -9999 -9999 -9999 -9999 -9999 -9999 -9999 -9999 -9999 -9999 -9999 -9999 -9999 -9999 -9999 -9999 -9999 -9999
-9999 -9999 -9999 -9999 -9999 -9999 -9999 -9999 -9999 -9999 -9999 -9999 -9999 -9999 -9999 -9999 -9999 -9999 -9999 -9999 -9999 -9999 -9999 -9999 -9999 -9999 -9999 -9999 -9999 -9999 -9999 -9999 -9999 -9999 -9999 353 362 375 371 411 412 432 481 540 594 681 687 687 652 646 613 539 449 378 325 320 304 285 283 261 250 268 324 272 245 239 234 243 291 343 439 394 354 372 376 377 328 307 299 325 351 383 442 474 390 324 326 293 264 289 303 332 391 455 467 476 472 420 346 290 277 257 256 251 248 233 250 267 282 328 365 309 328 217 201 213 236 254 270 264 209 240 208 201 237 252 234 233 274 257 217 200 175 170 166 164 160 155 144 144 150 155 177 230 280 371 525 416 518 471 425 490 469 482 466 392 300 392 428 328 294 239 247 205 194 187 182 181 173 176 179 182 185 188 189 191 193 197 198 201 206 212 289 243 257 268 278 316 412 476 540 475 345 275 302 409 461 694 822 860 887 842 792 693 627 650 739 834 818 850 837 800 809 839 911 931 944 885 782 786 803 882 900 1055 1074 1161 1186 1143 1223 1194 1192 1139 1296 1348 1198 1109 951 700 682 813 1022 -9999 -9999 628 586 625 691 740 787 819 840 873 737 917 941 1192 1279 1219 1365 1360 1399 1483 1519 1309 1029 832 893 769 952 1202 1311 1366 -9999 -9999 -9999 -9999 -9999 -9999 -9999 -9999 -9999 -9999 -9999 -9999 -9999 -9999 -9999 -9999 -9999 -9999 -9999 -9999 -9999 -9999 -9999 -9999 -9999 -9999 -9999 -9999 -9999 -9999 -9999 -9999 -9999 -9999 -9999 -9999 -9999 -9999 -9999 -9999 -9999 -9999 -9999 -9999 -9999 -9999 -9999
-9999 -9999 -9999 -9999 -9999 -9999 -9999 -9999 -9999 -9999 -9999 -9999 -9999 -9999 -9999 -9999 -9999 -9999 -9999 -9999 -9999 -9999 -9999 -9999 -9999 -9999 -9999 -9999 -9999 -9999 -9999 -9999 -9999 -9999 -9999 -9999 350 366 398 435 402 422 445 506 596 680 716 668 661 679 632 554 503 409 347 303 294 318 272 256 249 248 271 244 242 238 234 252 320 353 399 440 419 402 401 369 388 387 331 350 324 370 402 407 360 326 330 286 281 307 273 315 368 418 427 450 535 504 355 368 332 308 260 260 249 254 288 322 346 354 386 385 312 246 212 200 265 232 260 239 213 209 198 209 232 266 252 262 279 213 201 188 176 169 164 163 155 153 149 148 151 164 197 268 343 409 496 493 562 471 459 564 499 410 358 392 323 442 466 396 304 289 249 212 202 192 184 183 181 160 178 180 185 188 189 192 194 197 200 202 206 213 267 237 250 256 295 291 399 370 351 355 282 269 311 419 521 725 854 901 933 820 714 750 688 616 743 814 719 799 788 774 872 879 988 999 857 869 796 784 794 841 859 996 1111 1167 1328 1279 1287 1170 1140 1201 1340 1234 1031 823 817 630 784 883 1084 1001 805 632 576 596 613 708 703 777 921 913 715 899 955 1047 1280 1330 1343 1478 1415 1449 1279 1011 904 894 1179 969 844 999 1057 1188 1292 1395 -9999 -9999 -9999 -9999 -9999 -9999 -9999 -9999 -9999 -9999 -9999 -9999 -9999 -9999 -9999 -9999 -9999 -9999 -9999 -9999 -9999 -9999 -9999 -9999 -9999 -9999 -9999 -9999 -9999 -9999 -9999 -9999 -9999 -9999 -9999 -9999 -9999 -9999 -9999 -9999 -9999 -9999 -9999 -9999 -9999
-9999 -9999 -9999 -9999 -9999 -9999 -9999 -9999 -9999 -9999 -9999 -9999 -9999 -9999 -9999 -9999 -9999 -9999 -9999 -9999 -9999 -9999 -9999 -9999 -9999 -9999 -9999 -9999 -9999 -9999 -9999 -9999 -9999 -9999 -9999 -9999 356 367 415 391 404 398 421 469 563 694 734 614 647 682 678 603 542 485 402 327 310 287 310 281 256 244 244 241 240 238 234 271 283 308 386 437 449 451 438 419 391 342 392 400 352 380 387 358 348 344 293 273 336 340 306 289 337 352 386 422 472 533 436 464 397 302 272 267 290 307 371 440 461 451 443 397 349 292 203 198 241 204 245 221 213 198 203 207 207 216 221 246 287 248 245 210 172 168 162 157 151 150 148 149 153 188 212 254 332 397 506 582 550 528 516 507 445 476 512 406 313 400 514 394 378 300 249 236 210 199 195 189 183 179 164 177 182 187 192 193 195 198 202 204 206 215 227 231 237 244 250 279 347 448 394 297 263 262 338 454 420 567 630 859 874 804 751 718 723 656 731 804 645 769 765 657 786 915 1040 963 980 911 816 790 807 811 817 872 942 1091 1259 1388 1311 1185 1127 1230 1293 1084 771 680 650 816 887 961 1151 1036 822 655 625 591 613 619 692 821 992 924 881 816 990 1071 1106 1334 1457 1497 1376 1148 1136 878 965 1152 1244 1109 957 825 860 950 1047 1186 1345 -9999 -9999 -9999 -9999 -9999 -9999 -9999 -9999 -9999 -9999 -9999 -9999 -9999 -9999 -9999 -9999 -9999 -9999 -9999 -9999 -9999 -9999 -9999 -9999 -9999 -9999 -9999 -9999 -9999 -9999 -9999 -9999 -9999 -9999 -9999 -9999 -9999 -9999 -9999 -9999 -9999 -9999 -9999 -9999
-9999 -9999 -9999 -9999 -9999 -9999 -9999 -9999 -9999 -9999 -9999 -9999 -9999 607 585 612 630 565 564 -9999 -9999 -9999 -9999 -9999 -9999 -9999 -9999 532 572 478 437 384 400 371 342 -9999 374 366 381 416 380 397 416 473 556 661 742 661 614 696 764 692 596 535 476 337 337 299 310 298 272 243 243 268 253 237 236 256 281 304 368 441 469 436 392 409 406 414 409 402 415 403 398 391 373 342 330 299 351 398 357 348 342 381 408 443 521 592 566 451 446 392 340 303 293 313 365 423 516 539 477 383 286 258 218 199 196 196 196 206 197 198 228 215 249 218 258 272 289 268 213 213 177 166 164 153 151 143 148 150 161 233 204 261 316 394 486 615 612 602 573 518 559 539 550 424 350 435 473 459 367 350 281 256 215 205 197 189 185 181 181 158 183 185 190 193 196 199 201 204 209 215 220 225 226 236 255 335 347 376 291 259 258 265 286 321 351 355 408 580 650 606 606 714 743 682 797 701 591 728 784 627 711 906 1062 1012 925 859 877 801 799 849 898 863 883 1078 1278 1359 1288 1207 1104 1095 1239 1092 801 892 767 974 1068 1138 1130 991 831 709 695 595 665 620 710 839 1004 904 1010 839 972 1100 1178 1345 1466 1522 1461 1180 912 1052 1117 1363 1484 1437 1221 874 1023 1077 951 1062 1285 1384 -9999 -9999 -9999 -9999 -9999 -9999 -9999 -9999 -9999 -9999 -9999 -9999 -9999 -9999 -9999 -9999 -9999 -9999 -9999 -9999 -9999 -9999 -9999 -9999 -9999 -9999 -9999 -9999 -9999 -9999 -9999 -9999 -9999 -9999 -9999 -9999 -9999 -9999 -9999 -9999 -9999 -9999 -9999
-9999 -9999 -9999 -9999 -9999 -9999 -9999 -9999 -9999 -9999 -9999 635 619 683 674 676 698 652 637 585 519 488 484 -9999 436 386 478 533 541 461 416 404 398 386 376 356 342 366 393 402 390 402 445 468 531 648 730 664 636 709 735 728 657 544 400 362 303 270 283 268 256 240 239 245 285 234 233 251 276 324 323 402 474 437 423 445 440 369 435 414 419 401 406 388 363 316 319 363 384 425 416 386 368 369 435 472 496 527 611 532 567 449 373 353 349 315 375 468 544 588 472 346 297 243 219 226 199 198 195 194 194 212 251 230 238 249 243 283 249 211 206 192 176 167 158 151 150 148 148 169 195 200 240 288 309 398 462 558 542 551 551 566 487 523 540 513 389 357 455 410 369 282 304 251 230 203 194 192 187 181 180 181 179 183 189 194 198 198 201 205 211 215 218 219 226 230 264 332 314 268 253 251 254 276 306 295 343 350 387 507 485 528 635 606 721 763 741 574 599 612 709 608 720 846 992 947 885 939 913 820 853 930 948 856 905 1109 1284 1337 1304 1116 1078 1071 1141 917 871 771 824 981 1209 1255 1173 1055 920 868 748 616 672 718 674 817 959 963 991 874 960 1064 1156 1209 1444 1500 1362 1119 983 1235 1337 1375 1570 1673 1303 1079 1009 1249 1093 1017 1238 1329 1233 -9999 -9999 -9999 -9999 -9999 -9999 -9999 -9999 -9999 -9999 -9999 -9999 -9999 -9999 -9999 -9999 -9999 -9999 -9999 -9999 -9999 -9999 -9999 -9999 -9999 -9999 -9999 -9999 -9999 -9999 -9999 -9999 -9999 -9999 -9999 -9999 -9999 -9999 -9999 -9999 -9999 -9999
-9999 -9999 -9999 -9999 -9999 -9999 -9999 -9999 -9999 625 604 657 671 683 769 762 749 716 710 648 600 536 458 422 404 391 448 470 578 494 481 446 399 384 360 370 345 357 357 368 371 414 459 420 487 611 674 605 601 725 735 775 661 599 529 417 321 288 262 258 245 242 239 246 320 232 232 240 261 311 355 364 477 459 465 456 432 417 457 451 421 433 418 383 345 324 338 386 391 458 499 454 449 387 402 427 479 559 639 568 615 492 399 425 387 367 385 467 563 562 507 344 276 319 277 213 233 226 194 194 195 209 214 266 278 274 247 289 259 248 230 190 175 165 158 150 150 147 162 226 189 216 207 259 307 390 418 471 465 482 570 542 458 514 548 483 475 448 368 460 406 302 352 281 242 236 197 193 189 183 180 183 158 183 188 191 199 199 203 209 211 216 217 220 226 234 238 266 268 246 246 252 260 342 303 373 502 573 630 707 629 638 569 505 586 676 586 539 669 560 583 710 764 797 841 962 944 968 975 854 876 954 972 896 907 1079 1311 1334 1220 1090 1013 1014 961 1071 1042 844 873 998 1222 1370 1258 1190 1062 973 788 638 726 737 688 829 967 976 952 880 934 1089 1113 1153 1345 1567 1484 1133 1120 1209 1453 1584 1755 1646 1339 1128 963 1182 1325 1089 1203 1396 1320 1186 -9999 -9999 -9999 -9999 -9999 -9999 -9999 -9999 -9999 -9999 -9999 -9999 -9999 -9999 -9999 -9999 -9999 -9999 -9999 -9999 -9999 -9999 -9999 -9999 -9999 -9999 -9999 -9999 -9999 -9999 -9999 -9999 -9999 -9999 -9999 -9999 -9999 -9999 -9999 -9999 -9999
-9999 -9999 -9999 -9999 -9999 -9999 -9999 630 687 708 674 627 729 720 803 833 815 784 736 627 543 481 511 450 475 398 487 557 551 552 452 415 424 381 381 358 375 357 360 408 411 385 394 400 452 526 617 584 604 724 768 869 698 581 529 447 324 291 272 259 267 254 239 238 286 330 231 238 269 297 317 345 389 499 471 459 430 478 453 409 420 371 390 341 337 355 370 371 423 469 545 575 537 488 449 404 476 574 600 513 593 503 483 559 488 418 452 509 561 494 413 359 349 321 298 248 314 281 199 193 199 242 279 224 254 309 299 264 254 219 206 187 175 166 155 151 149 143 198 229 259 233 278 248 283 381 368 396 439 446 523 454 406 517 467 537 490 397 495 393 451 321 355 304 261 242 218 198 190 184 181 185 180 183 187 191 198 200 203 206 208 215 218 226 222 229 231 237 237 241 247 250 313 404 338 428 576 712 757 896 889 828 835 609 518 527 557 602 640 619 574 671 778 758 798 944 941 994 982 868 937 1016 968 887 892 1084 1268 1266 1199 1034 1140 1113 1219 1253 1147 908 909 1086 1310 1398 1131 997 782 714 727 774 765 678 705 800 968 990 977 944 975 999 1020 1096 1259 1538 1504 1345 1216 1370 1463 1573 1821 1422 1311 1256 1210 1254 1445 1239 1181 1470 1442 1345 -9999 -9999 -9999 -9999 -9999 -9999 -9999 -9999 -9999 -9999 -9999 -9999 -9999 -9999 -9999 -9999 -9999 -9999 -9999 -9999 -9999 -9999 -9999 -9999 -9999 -9999 -9999 -9999 -9999 -9999 -9999 -9999 -9999 -9999 -9999 -9999 -9999 -9999 -9999 -9999 -9999
-9999 -9999 -9999 -9999 -9999 -9999 678 705 660 753 792 716 735 750 821 895 904 898 769 658 603 591 572 564 516 414 423 460 520 552 509 463 412 410 415 388 375 361 419 384 451 408 485 414 478 546 656 591 654 732 801 825 709 531 470 440 387 336 300 301 270 273 248 236 237 233 232 242 252 282 327 351 414 484 483 463 477 464 427 467 444 390 401 418 401 404 428 438 469 492 620 654 624 597 519 462 473 578 494 471 554 464 460 581 547 450 479 540 473 438 359 318 289 284 255 261 266 256 192 191 232 254 277 265 296 271 263 295 267 255 202 185 172 160 154 151 149 128 208 254 275 248 297 258 303 308 301 347 349 436 440 424 440 419 476 534 465 517 467 409 401 329 348 266 244 233 218 200 192 184 182 187 187 177 178 189 194 198 202 204 210 214 218 220 223 229 233 236 237 243 250 266 283 341 396 473 624 718 909 994 992 902 852 736 535 597 819 732 817 682 640 614 744 701 738 827 934 995 975 893 951 955 903 828 876 981 1110 1184 1158 1067 1252 1249 1335 1252 1066 979 974 1186 1374 1173 956 882 928 956 1044 883 774 841 734 837 991 1065 1026 997 979 1030 1095 1132 1194 1339 1473 1579 1444 1477 1420 1548 1838 1690 1612 1718 1404 1541 1487 1224 1324 1535 1617 1597 1719 -9999 -9999 -9999 -9999 -9999 -9999 -9999 -9999 -9999 -9999 -9999 -9999 -9999 -9999 -9999 -9999 -9999 -9999 -9999 -9999 -9999 -9999 -9999 -9999 -9999 -9999 -9999 -9999 -9999 -9999 -9999 -9999 -9999 -9999 -9999 -9999 -9999 -9999 -9999 -9999
-9999 -9999 -9999 -9999 -9999 641 698 753 741 725 841 783 753 846 812 868 963 885 864 794 674 674 614 527 454 422 478 466 544 545 480 425 431 475 432 395 383 387 444 428 409 478 430 435 456 521 642 630 682 760 841 996 793 626 536 419 383 300 286 283 256 249 243 249 234 232 231 235 250 289 332 371 373 446 486 503 468 484 470 429 419 438 444 422 466 467 455 515 586 565 694 747 759 683 565 530 543 584 553 450 513 420 501 637 529 474 507 504 401 394 341 354 310 254 245 246 246 193 189 205 215 242 286 282 307 249 236 276 275 213 197 184 175 160 149 150 147 148 198 247 249 259 241 240 263 300 309 349 306 382 377 323 419 351 469 578 539 548 433 442 447 375 339 256 243 226 207 201 192 194 181 187 187 186 184 185 190 196 200 205 207 213 216 222 221 227 232 235 234 245 256 285 393 371 431 552 632 667 891 950 1001 856 821 821 569 703 827 881 846 891 715 595 696 686 787 846 930 941 906 888 892 885 864 829 855 907 1119 1179 1227 1220 1215 1347 1437 1279 1074 1045 1186 1389 1317 1061 1144 1247 1138 1150 1167 973 797 882 792 881 1008 1114 1087 1020 1057 1006 1024 1129 1083 1130 1411 1563 1676 1676 1708 1586 1793 1958 1682 1768 1671 1521 1326 1242 1483 1720 1861 1868 1779 1702 -9999 -9999 -9999 -9999 -9999 -9999 -9999 -9999 -9999 -9999 -9999 -9999 -9999 -9999 -9999 -9999 -9999 -9999 -9999 -9999 -9999 -9999 -9999 -9999 -9999 -9999 -9999 -9999 -9999 -9999 -9999 -9999 -9999 -9999 -9999 -9999 -9999 -9999 -9999
-9999 -9999 -9999 -9999 639 703 723 792 820 774 842 857 800 884 919 877 963 943 968 983 756 645 576 488 490 447 454 510 567 476 443 477 472 461 451 394 391 377 385 464 421 493 463 504 479 540 573 630 729 766 881 965 912 745 570 500 444 344 304 294 300 269 266 262 236 232 233 231 264 307 304 313 378 385 472 504 480 488 450 475 434 469 448 445 462 531 490 495 545 639 703 814 743 640 626 624 629 618 573 472 466 421 515 625 480 439 483 479 403 352 356 338 346 300 258 265 219 201 226 221 201 214 263 257 302 246 218 237 285 235 194 185 169 158 152 149 140 152 205 237 205 258 216 268 279 355 425 390 304 327 355 290 375 436 411 522 566 508 520 500 455 389 296 269 232 216 208 203 218 191 184 187 192 191 188 179 188 192 198 205 207 211 213 217 222 225 231 239 240 254 270 306 323 393 512 566 548 597 753 746 796 850 889 851 630 857 888 919 903 933 785 643 643 660 727 758 864 1005 934 903 882 805 795 854 874 894 1030 1168 1277 1303 1228 1255 1389 1385 1340 1195 1359 1473 1290 1046 1342 1420 1283 1328 1245 1055 856 920 826 835 924 1068 1135 1061 1108 1062 1079 1102 1067 991 1267 1515 1742 1884 1833 1767 1950 2074 1935 1835 1729 1346 1334 1457 1707 1750 1684 1663 1599 1635 -9999 -9999 -9999 -9999 -9999 -9999 -9999 -9999 -9999 -9999 -9999 -9999 -9999 -9999 -9999 -9999 -9999 -9999 -9999 -9999 -9999 -9999 -9999 -9999 -9999 -9999 -9999 -9999 -9999 -9999 -9999 -9999 -9999 -9999 -9999 -9999 -9999 -9999 -9999
-9999 -9999 -9999 631 688 720 791 856 827 825 873 905 869 918 958 961 1005 1025 941 855 675 639 579 560 537 512 440 469 530 539 465 522 526 463 424 461 460 450 421 399 443 516 525 565 572 530 565 619 735 758 827 954 974 771 649 538 460 373 337 326 298 269 263 247 238 234 231 231 255 268 309 324 339 371 391 475 512 490 499 457 440 474 460 462 483 482 501 524 576 660 748 706 727 659 573 568 531 535 537 479 391 436 511 580 496 405 450 515 431 357 315 314 269 250 237 272 226 195 190 184 184 217 218 248 270 280 253 215 260 228 194 182 167 156 149 149 146 150 199 221 205 213 206 274 334 338 368 380 298 340 287 361 359 387 380 494 600 577 566 471 437 453 366 277 251 219 209 233 226 186 188 191 197 192 193 189 169 192 196 202 204 209 212 217 221 227 227 233 239 254 273 298 329 362 385 404 496 518 556 731 955 1030 997 932 746 924 945 990 961 886 743 791 832 631 720 762 844 932 980 1009 938 960 823 774 882 987 944 1040 1085 1256 1336 1365 1425 1357 1265 1153 1213 1338 1200 1193 1451 1492 1371 1430 1308 1151 951 950 797 771 924 1029 1128 1150 1152 1119 1138 1068 864 907 1210 1427 1585 1590 1604 1615 1772 1895 1830 1714 1479 1483 1559 1685 1596 1528 1461 1482 1276 1320 1348 -9999 -9999 -9999 -9999 -9999 -9999 -9999 -9999 -9999 -9999 -9999 -9999 -9999 -9999 -9999 -9999 -9999 -9999 -9999 -9999 -9999 -9999 -9999 -9999 -9999 -9999 -9999 -9999 -9999 -9999 -9999 -9999 -9999 -9999 -9999 -9999 -9999 -9999
-9999 -9999 -9999 654 737 756 851 951 902 901 949 952 978 1014 1058 1041 1070 1066 980 867 660 649 643 597 600 573 467 480 544 524 497 573 505 495 513 467 529 473 438 403 490 595 595 634 566 556 546 632 685 752 807 992 1048 817 643 536 435 381 339 307 280 282 270 244 241 239 233 230 235 263 311 296 316 342 363 380 466 489 493 459 435 478 481 470 449 455 499 554 643 700 650 620 698 697 590 501 501 484 490 459 378 468 549 511 431 397 401 481 439 408 358 294 326 293 264 259 195 277 230 191 181 225 186 210 255 279 222 211 223 215 189 180 164 155 149 147 125 153 204 210 197 202 251 283 321 308 308 307 266 327 245 345 327 294 349 417 480 650 599 471 404 396 334 355 291 225 212 245 215 193 183 199 196 195 194 193 195 171 192 199 198 199 208 213 220 222 225 225 233 247 266 319 383 442 496 600 649 747 782 715 857 896 957 901 926 991 1038 1071 1103 967 921 847 685 642 776 786 770 852 951 1067 992 978 937 818 727 925 926 869 1043 1244 1357 1390 1396 1188 1126 1117 1202 1193 1147 1292 1377 1546 1498 1466 1334 1176 978 857 812 698 851 1023 1167 1241 1223 1207 1035 858 803 906 1108 1369 1409 1270 1223 1373 1565 1660 1736 1776 1659 1843 1789 1650 1490 1372 1188 1223 1129 996 1043 -9999 -9999 -9999 -9999 -9999 -9999 -9999 -9999 -9999 -9999 -9999 -9999 -9999 -9999 -9999 -9999 -9999 -9999 -9999 -9999 -9999 -9999 -9999 -9999 -9999 -9999 -9999 -9999 -9999 -9999 -9999 -9999 -9999 -9999 -9999 -9999 -9999 -9999
